VERSION .7
FIELDS x y z rgb
SIZE 4 4 4 4
TYPE F F F F
COUNT 1 1 1 1
WIDTH 957
HEIGHT 1
VIEWPOINT 0 0 0 1 0 0 0
POINTS 957
DATA ascii
1.059427 -0.783791 0.306421 2.341805152028776e-38
1.053207 -0.788910 0.305904 2.341805152028776e-38
1.050068 -0.796339 0.306284 2.341805152028776e-38
1.046106 -0.803169 0.306430 2.341805152028776e-38
1.042099 -0.809982 0.306567 2.341805152028776e-38
1.036510 -0.815583 0.306247 2.341805152028776e-38
1.031604 -0.821811 0.306165 2.341805152028776e-38
1.028176 -0.829235 0.306527 2.341805152028776e-38
1.023188 -0.835418 0.306428 2.341805152028776e-38
1.017413 -0.840954 0.306094 2.341805152028776e-38
1.009366 -0.844577 0.305075 2.341805152028776e-38
2.345950 -1.363456 0.618543 2.341805152028776e-38
2.291167 -1.348987 0.606066 2.341805152028776e-38
2.233275 -1.331951 0.592686 2.341805152028776e-38
2.178124 -1.315865 0.579979 2.341805152028776e-38
1.143605 -0.736330 0.309858 2.341805152028776e-38
1.115648 -0.727488 0.303392 2.341805152028776e-38
1.104913 -0.729642 0.301585 2.341805152028776e-38
1.098243 -0.734409 0.300881 2.341805152028776e-38
1.092363 -0.739674 0.300392 2.341805152028776e-38
1.087263 -0.745449 0.300116 2.341805152028776e-38
1.084510 -0.752892 0.300511 2.341805152028776e-38
1.078489 -0.758123 0.300023 2.341805152028776e-38
1.074033 -0.764443 0.299971 2.341805152028776e-38
1.068749 -0.770170 0.299690 2.341805152028776e-38
1.064223 -0.776439 0.299622 2.341805152028776e-38
1.060439 -0.783270 0.299770 2.341805152028776e-38
1.055781 -0.789559 0.299710 2.341805152028776e-38
1.051086 -0.795825 0.299643 2.341805152028776e-38
1.047127 -0.802658 0.299788 2.341805152028776e-38
1.042355 -0.808878 0.299704 2.341805152028776e-38
1.036779 -0.814469 0.299390 2.341805152028776e-38
1.032656 -0.821288 0.299528 2.341805152028776e-38
1.028475 -0.828104 0.299664 2.341805152028776e-38
1.023494 -0.834287 0.299570 2.341805152028776e-38
1.017723 -0.839821 0.299247 2.341805152028776e-38
1.011924 -0.845319 0.298915 2.341805152028776e-38
2.299596 -1.334570 0.592419 2.341805152028776e-38
2.249956 -1.322803 0.581522 2.341805152028776e-38
2.206394 -1.314021 0.572133 2.341805152028776e-38
2.144617 -1.293703 0.557948 2.341805152028776e-38
1.137146 -0.731095 0.301039 2.341805152028776e-38
1.115748 -0.726446 0.296442 2.341805152028776e-38
1.105824 -0.729136 0.294895 2.341805152028776e-38
1.099965 -0.734449 0.294427 2.341805152028776e-38
1.094890 -0.740268 0.294168 2.341805152028776e-38
1.089785 -0.746056 0.293901 2.341805152028776e-38
1.085448 -0.752374 0.293846 2.341805152028776e-38
1.081026 -0.758730 0.293806 2.341805152028776e-38
1.075770 -0.764497 0.293541 2.341805152028776e-38
1.070485 -0.770232 0.293268 2.341805152028776e-38
1.066747 -0.777083 0.293422 2.341805152028776e-38
1.062180 -0.783341 0.293350 2.341805152028776e-38
1.057537 -0.789621 0.293288 2.341805152028776e-38
1.052842 -0.795895 0.293224 2.341805152028776e-38
1.048109 -0.802143 0.293153 2.341805152028776e-38
1.043339 -0.808366 0.293073 2.341805152028776e-38
1.038533 -0.814563 0.292985 2.341805152028776e-38
1.034432 -0.821367 0.293115 2.341805152028776e-38
1.030252 -0.828192 0.293251 2.341805152028776e-38
1.023755 -0.833150 0.292728 2.341805152028776e-38
1.021005 -0.841167 0.293280 2.341805152028776e-38
1.012946 -0.844806 0.292309 2.341805152028776e-38
2.279231 -1.320863 0.573448 2.341805152028776e-38
2.232136 -1.310462 0.563435 2.341805152028776e-38
2.191951 -1.303573 0.555110 2.341805152028776e-38
2.122622 -1.278632 0.539328 2.341805152028776e-38
1.172715 -0.743437 0.302127 2.341805152028776e-38
1.128980 -0.724800 0.291888 2.341805152028776e-38
1.113348 -0.723803 0.288872 2.341805152028776e-38
1.106694 -0.728627 0.288212 2.341805152028776e-38
1.101649 -0.734485 0.287970 2.341805152028776e-38
1.095763 -0.739765 0.287507 2.341805152028776e-38
1.091466 -0.746108 0.287461 2.341805152028776e-38
1.087936 -0.752984 0.287620 2.341805152028776e-38
1.081926 -0.758210 0.287152 2.341805152028776e-38
1.077470 -0.764547 0.287108 2.341805152028776e-38
1.072976 -0.770860 0.287057 2.341805152028776e-38
1.069236 -0.777724 0.287209 2.341805152028776e-38
1.063879 -0.783414 0.286929 2.341805152028776e-38
1.059255 -0.789678 0.286863 2.341805152028776e-38
1.054559 -0.795960 0.286803 2.341805152028776e-38
1.051379 -0.803403 0.287160 2.341805152028776e-38
1.045829 -0.809045 0.286873 2.341805152028776e-38
1.041788 -0.815858 0.287001 2.341805152028776e-38
1.036169 -0.821441 0.286699 2.341805152028776e-38
1.031990 -0.828275 0.286834 2.341805152028776e-38
1.027766 -0.835090 0.286961 2.341805152028776e-38
1.021233 -0.840024 0.286445 2.341805152028776e-38
1.016181 -0.846163 0.286344 2.341805152028776e-38
2.267192 -1.312050 0.556821 2.341805152028776e-38
2.211653 -1.296630 0.544960 2.341805152028776e-38
2.168977 -1.288123 0.536205 2.341805152028776e-38
1.163678 -0.736664 0.292648 2.341805152028776e-38
1.138040 -0.729587 0.287213 2.341805152028776e-38
1.119085 -0.726505 0.283435 2.341805152028776e-38
1.108343 -0.728651 0.281745 2.341805152028776e-38
1.102481 -0.733975 0.281303 2.341805152028776e-38
1.098218 -0.740352 0.281269 2.341805152028776e-38
1.093110 -0.746155 0.281019 2.341805152028776e-38
1.089581 -0.753039 0.281178 2.341805152028776e-38
1.085993 -0.759931 0.281336 2.341805152028776e-38
1.079930 -0.765158 0.280881 2.341805152028776e-38
1.075432 -0.771484 0.280833 2.341805152028776e-38
1.070107 -0.777210 0.280570 2.341805152028776e-38
1.065539 -0.783483 0.280506 2.341805152028776e-38
1.060935 -0.789732 0.280435 2.341805152028776e-38
1.056239 -0.796021 0.280380 2.341805152028776e-38
1.051506 -0.802286 0.280317 2.341805152028776e-38
1.047509 -0.809123 0.280453 2.341805152028776e-38
1.043469 -0.815943 0.280581 2.341805152028776e-38
1.039385 -0.822746 0.280701 2.341805152028776e-38
1.035980 -0.830189 0.281037 2.341805152028776e-38
1.031746 -0.837026 0.281163 2.341805152028776e-38
1.026711 -0.843223 0.281074 2.341805152028776e-38
2.249104 -1.299800 0.538941 2.341805152028776e-38
2.197794 -1.286749 0.528375 2.341805152028776e-38
2.144177 -1.271668 0.517186 2.341805152028776e-38
1.201916 -0.750232 0.293870 2.341805152028776e-38
1.168642 -0.738783 0.286742 2.341805152028776e-38
1.139662 -0.729620 0.280623 2.341805152028776e-38
1.120686 -0.726545 0.276934 2.341805152028776e-38
1.109953 -0.728672 0.275276 2.341805152028776e-38
1.104905 -0.734545 0.275050 2.341805152028776e-38
1.100639 -0.740935 0.275019 2.341805152028776e-38
1.094717 -0.746199 0.274575 2.341805152028776e-38
1.091189 -0.753090 0.274733 2.341805152028776e-38
1.087618 -0.759969 0.274882 2.341805152028776e-38
1.081555 -0.765200 0.274439 2.341805152028776e-38
1.077057 -0.771533 0.274395 2.341805152028776e-38
1.071730 -0.777268 0.274140 2.341805152028776e-38
1.067952 -0.784128 0.274283 2.341805152028776e-38
1.062558 -0.789805 0.274014 2.341805152028776e-38
1.057881 -0.796079 0.273954 2.341805152028776e-38
1.053926 -0.802944 0.274097 2.341805152028776e-38
1.049152 -0.809196 0.274030 2.341805152028776e-38
1.045112 -0.816023 0.274158 2.341805152028776e-38
1.039492 -0.821620 0.273873 2.341805152028776e-38
1.035351 -0.828428 0.273994 2.341805152028776e-38
1.031129 -0.835259 0.274120 2.341805152028776e-38
1.029891 -0.844556 0.275047 2.341805152028776e-38
2.239377 -1.292444 0.523282 2.341805152028776e-38
2.191434 -1.281314 0.513764 2.341805152028776e-38
2.127666 -1.260200 0.500462 2.341805152028776e-38
1.179453 -0.735211 0.281210 2.341805152028776e-38
1.152856 -0.727816 0.275839 2.341805152028776e-38
1.129686 -0.722257 0.271255 2.341805152028776e-38
1.118135 -0.723917 0.269440 2.341805152028776e-38
1.111522 -0.728696 0.268808 2.341805152028776e-38
1.106477 -0.734571 0.268587 2.341805152028776e-38
1.102210 -0.740967 0.268560 2.341805152028776e-38
1.097096 -0.746790 0.268327 2.341805152028776e-38
1.093566 -0.753694 0.268483 2.341805152028776e-38
1.089189 -0.760024 0.268434 2.341805152028776e-38
1.084743 -0.766370 0.268391 2.341805152028776e-38
1.079442 -0.772150 0.268152 2.341805152028776e-38
1.074110 -0.777897 0.267906 2.341805152028776e-38
1.070329 -0.784769 0.268049 2.341805152028776e-38
1.066504 -0.791626 0.268183 2.341805152028776e-38
1.061835 -0.797899 0.268120 2.341805152028776e-38
1.056311 -0.803599 0.267866 2.341805152028776e-38
1.051532 -0.809863 0.267803 2.341805152028776e-38
1.045171 -0.814894 0.267337 2.341805152028776e-38
1.041095 -0.821704 0.267456 2.341805152028776e-38
1.037739 -0.829110 0.267767 2.341805152028776e-38
1.032752 -0.835337 0.267695 2.341805152028776e-38
1.044414 -0.855200 0.271960 2.341805152028776e-38
2.204895 -1.270874 0.502150 2.341805152028776e-38
2.162104 -1.262516 0.494028 2.341805152028776e-38
1.166882 -0.726407 0.271147 2.341805152028776e-38
1.137815 -0.717370 0.265329 2.341805152028776e-38
1.126255 -0.719115 0.263567 2.341805152028776e-38
1.117185 -0.722351 0.262379 2.341805152028776e-38
1.112218 -0.728198 0.262151 2.341805152028776e-38
1.108012 -0.734592 0.262123 2.341805152028776e-38
1.103745 -0.740997 0.262099 2.341805152028776e-38
1.098630 -0.746827 0.261874 2.341805152028776e-38
1.095100 -0.753738 0.262029 2.341805152028776e-38
1.089918 -0.759514 0.261790 2.341805152028776e-38
1.084692 -0.765274 0.261549 2.341805152028776e-38
1.078597 -0.770482 0.261126 2.341805152028776e-38
1.074864 -0.777372 0.261274 2.341805152028776e-38
1.071879 -0.784826 0.261609 2.341805152028776e-38
1.068055 -0.791691 0.261743 2.341805152028776e-38
1.063403 -0.797951 0.261676 2.341805152028776e-38
1.058659 -0.804250 0.261624 2.341805152028776e-38
1.053099 -0.809928 0.261371 2.341805152028776e-38
1.048284 -0.816172 0.261304 2.341805152028776e-38
1.043431 -0.822391 0.261230 2.341805152028776e-38
1.040843 -0.830418 0.261727 2.341805152028776e-38
1.032047 -0.833561 0.260689 2.341805152028776e-38
1.062736 -0.868947 0.269673 2.341805152028776e-38
2.126828 -1.224334 0.471817 2.341805152028776e-38
2.097842 -1.223429 0.466913 2.341805152028776e-38
1.160072 -0.721230 0.262568 2.341805152028776e-38
1.136819 -0.715815 0.258216 2.341805152028776e-38
1.126087 -0.718081 0.256689 2.341805152028776e-38
1.118665 -0.722380 0.255911 2.341805152028776e-38
1.114520 -0.728771 0.255880 2.341805152028776e-38
1.111966 -0.736238 0.256224 2.341805152028776e-38
1.107689 -0.742664 0.256203 2.341805152028776e-38
1.102563 -0.748515 0.255986 2.341805152028776e-38
1.097406 -0.754335 0.255762 2.341805152028776e-38
1.093025 -0.760684 0.255719 2.341805152028776e-38
1.087805 -0.766443 0.255481 2.341805152028776e-38
1.081706 -0.771661 0.255068 2.341805152028776e-38
1.077967 -0.778568 0.255215 2.341805152028776e-38
1.073391 -0.784880 0.255167 2.341805152028776e-38
1.069568 -0.791752 0.255300 2.341805152028776e-38
1.064129 -0.797430 0.255048 2.341805152028776e-38
1.060190 -0.804304 0.255181 2.341805152028776e-38
1.056186 -0.811185 0.255313 2.341805152028776e-38
1.051363 -0.817447 0.255250 2.341805152028776e-38
1.044959 -0.822467 0.254803 2.341805152028776e-38
1.040837 -0.829278 0.254914 2.341805152028776e-38
1.030532 -0.831165 0.253521 2.341805152028776e-38
2.088523 -1.200845 0.451049 2.341805152028776e-38
2.059675 -1.199674 0.446256 2.341805152028776e-38
1.209186 -0.741364 0.265512 2.341805152028776e-38
1.154038 -0.716568 0.254266 2.341805152028776e-38
1.136612 -0.714780 0.251315 2.341805152028776e-38
1.126706 -0.717571 0.250014 2.341805152028776e-38
1.119283 -0.721874 0.249257 2.341805152028776e-38
1.117609 -0.729879 0.249781 2.341805152028776e-38
1.114241 -0.736807 0.249930 2.341805152028776e-38
1.109152 -0.742687 0.249724 2.341805152028776e-38
1.104838 -0.749097 0.249699 2.341805152028776e-38
1.099677 -0.754929 0.249483 2.341805152028776e-38
1.098521 -0.763533 0.250179 2.341805152028776e-38
1.093283 -0.769323 0.249949 2.341805152028776e-38
1.087183 -0.774549 0.249541 2.341805152028776e-38
1.081036 -0.779761 0.249135 2.341805152028776e-38
1.076454 -0.786090 0.249090 2.341805152028776e-38
1.071044 -0.791809 0.248854 2.341805152028776e-38
1.065603 -0.797494 0.248612 2.341805152028776e-38
1.062466 -0.804948 0.248920 2.341805152028776e-38
1.057679 -0.811243 0.248867 2.341805152028776e-38
1.052079 -0.816909 0.248624 2.341805152028776e-38
1.046449 -0.822539 0.248374 2.341805152028776e-38
1.040790 -0.828132 0.248117 2.341805152028776e-38
1.032032 -0.831230 0.247123 2.341805152028776e-38
1.667086 -1.410071 0.406650 2.341805152028776e-38
2.075648 -1.192047 0.436115 2.341805152028776e-38
2.048555 -1.191746 0.431792 2.341805152028776e-38
1.192207 -0.730083 0.254680 2.341805152028776e-38
1.152953 -0.715030 0.247130 2.341805152028776e-38
1.137196 -0.714266 0.244612 2.341805152028776e-38
1.128116 -0.717588 0.243525 2.341805152028776e-38
1.123170 -0.723495 0.243328 2.341805152028776e-38
1.118194 -0.729371 0.243124 2.341805152028776e-38
1.114829 -0.736301 0.243271 2.341805152028776e-38
1.111395 -0.743254 0.243424 2.341805152028776e-38
1.106264 -0.749125 0.243222 2.341805152028776e-38
1.102724 -0.756076 0.243372 2.341805152028776e-38
1.100757 -0.764135 0.243873 2.341805152028776e-38
1.091490 -0.767108 0.242756 2.341805152028776e-38
1.085418 -0.772301 0.242354 2.341805152028776e-38
1.082476 -0.779801 0.242677 2.341805152028776e-38
1.077098 -0.785557 0.242456 2.341805152028776e-38
1.074064 -0.793032 0.242765 2.341805152028776e-38
1.068616 -0.798733 0.242530 2.341805152028776e-38
1.063921 -0.804995 0.242468 2.341805152028776e-38
1.059134 -0.811297 0.242419 2.341805152028776e-38
1.054310 -0.817573 0.242364 2.341805152028776e-38
1.049449 -0.823822 0.242301 2.341805152028776e-38
1.043781 -0.829432 0.242052 2.341805152028776e-38
1.040383 -0.836855 0.242333 2.341805152028776e-38
1.701062 -1.436888 0.403620 2.341805152028776e-38
2.076339 -1.191085 0.424142 2.341805152028776e-38
2.042423 -1.186816 0.418539 2.341805152028776e-38
1.180186 -0.721880 0.245103 2.341805152028776e-38
1.150144 -0.712461 0.239676 2.341805152028776e-38
1.136907 -0.713226 0.237742 2.341805152028776e-38
1.130319 -0.718129 0.237210 2.341805152028776e-38
1.123714 -0.722982 0.236671 2.341805152028776e-38
1.119565 -0.729398 0.236649 2.341805152028776e-38
1.117023 -0.736877 0.236969 2.341805152028776e-38
1.111966 -0.742724 0.236764 2.341805152028776e-38
1.106836 -0.748597 0.236570 2.341805152028776e-38
1.103300 -0.755551 0.236718 2.341805152028776e-38
1.096485 -0.760246 0.236162 2.341805152028776e-38
1.091264 -0.766021 0.235948 2.341805152028776e-38
1.086815 -0.772334 0.235901 2.341805152028776e-38
1.083877 -0.779838 0.236217 2.341805152028776e-38
1.079294 -0.786181 0.236178 2.341805152028776e-38
1.075466 -0.793083 0.236306 2.341805152028776e-38
1.069228 -0.798202 0.235906 2.341805152028776e-38
1.066108 -0.805651 0.236195 2.341805152028776e-38
1.062115 -0.812545 0.236318 2.341805152028776e-38
1.057284 -0.818837 0.236265 2.341805152028776e-38
1.051640 -0.824494 0.236032 2.341805152028776e-38
1.046738 -0.830727 0.235965 2.341805152028776e-38
1.599307 -1.332821 0.367154 2.341805152028776e-38
1.716998 -1.448463 0.396022 2.341805152028776e-38
2.082946 -1.193547 0.413375 2.341805152028776e-38
1.171459 -0.715730 0.236357 2.341805152028776e-38
1.148964 -0.710927 0.232608 2.341805152028776e-38
1.139081 -0.713753 0.231400 2.341805152028776e-38
1.131656 -0.718140 0.230715 2.341805152028776e-38
1.126706 -0.724065 0.230532 2.341805152028776e-38
1.122550 -0.730497 0.230512 2.341805152028776e-38
1.119181 -0.737450 0.230656 2.341805152028776e-38
1.114129 -0.743295 0.230454 2.341805152028776e-38
1.109819 -0.749722 0.230434 2.341805152028776e-38
1.104651 -0.755579 0.230241 2.341805152028776e-38
1.101073 -0.762525 0.230380 2.341805152028776e-38
1.095837 -0.768326 0.230174 2.341805152028776e-38
1.092179 -0.775234 0.230300 2.341805152028776e-38
1.087642 -0.781598 0.230263 2.341805152028776e-38
1.083048 -0.787961 0.230227 2.341805152028776e-38
1.077624 -0.793715 0.230015 2.341805152028776e-38
1.073750 -0.800612 0.230135 2.341805152028776e-38
1.069832 -0.807493 0.230249 2.341805152028776e-38
1.065845 -0.814387 0.230365 2.341805152028776e-38
1.060223 -0.820097 0.230146 2.341805152028776e-38
1.054571 -0.825771 0.229920 2.341805152028776e-38
1.055841 -0.836918 0.231211 2.341805152028776e-38
1.628749 -1.355638 0.363209 2.341805152028776e-38
1.744967 -1.470195 0.390951 2.341805152028776e-38
2.077513 -1.189146 0.400249 2.341805152028776e-38
1.210586 -0.729471 0.236308 2.341805152028776e-38
1.166039 -0.711632 0.228384 2.341805152028776e-38
1.150258 -0.710946 0.226061 2.341805152028776e-38
1.141211 -0.714293 0.225051 2.341805152028776e-38
1.133789 -0.718676 0.224383 2.341805152028776e-38
1.129664 -0.725146 0.224373 2.341805152028776e-38
1.125503 -0.731594 0.224355 2.341805152028776e-38
1.120480 -0.737477 0.224167 2.341805152028776e-38
1.116248 -0.743876 0.224137 2.341805152028776e-38
1.111133 -0.749741 0.223949 2.341805152028776e-38
1.106778 -0.756161 0.223928 2.341805152028776e-38
1.102386 -0.762558 0.223900 2.341805152028776e-38
1.098765 -0.769496 0.224031 2.341805152028776e-38
1.093492 -0.775279 0.223825 2.341805152028776e-38
1.089772 -0.782204 0.223951 2.341805152028776e-38
1.085175 -0.788579 0.223917 2.341805152028776e-38
1.079746 -0.794344 0.223713 2.341805152028776e-38
1.074287 -0.800074 0.223502 2.341805152028776e-38
1.071948 -0.808144 0.223944 2.341805152028776e-38
1.067975 -0.815030 0.224052 2.341805152028776e-38
1.062348 -0.820751 0.223841 2.341805152028776e-38
1.055914 -0.825828 0.223459 2.341805152028776e-38
1.068791 -0.846166 0.227181 2.341805152028776e-38
1.661996 -1.381607 0.359739 2.341805152028776e-38
1.769165 -1.488748 0.384733 2.341805152028776e-38
2.083140 -1.191110 0.389290 2.341805152028776e-38
1.192449 -0.717767 0.225776 2.341805152028776e-38
1.160566 -0.707531 0.220487 2.341805152028776e-38
1.149835 -0.709925 0.219193 2.341805152028776e-38
1.142462 -0.714316 0.218535 2.341805152028776e-38
1.135886 -0.719211 0.218041 2.341805152028776e-38
1.130928 -0.725159 0.217873 2.341805152028776e-38
1.126766 -0.731613 0.217858 2.341805152028776e-38
1.122567 -0.738045 0.217837 2.341805152028776e-38
1.118332 -0.744455 0.217810 2.341805152028776e-38
1.113228 -0.750310 0.217622 2.341805152028776e-38
1.109685 -0.757297 0.217764 2.341805152028776e-38
1.105287 -0.763710 0.217738 2.341805152028776e-38
1.100851 -0.770098 0.217707 2.341805152028776e-38
1.095574 -0.775892 0.217509 2.341805152028776e-38
1.090262 -0.781657 0.217307 2.341805152028776e-38
1.084869 -0.787454 0.217117 2.341805152028776e-38
1.081037 -0.794385 0.217240 2.341805152028776e-38
1.077160 -0.801300 0.217357 2.341805152028776e-38
1.073240 -0.808198 0.217467 2.341805152028776e-38
1.068491 -0.814481 0.217411 2.341805152028776e-38
1.063655 -0.820800 0.217366 2.341805152028776e-38
1.054107 -0.823452 0.216358 2.341805152028776e-38
1.611308 -1.321609 0.336684 2.341805152028776e-38
1.720326 -1.428385 0.361139 2.341805152028776e-38
1.809224 -1.520637 0.381583 2.341805152028776e-38
1.184392 -0.712169 0.217329 2.341805152028776e-38
1.160948 -0.707025 0.213752 2.341805152028776e-38
1.150213 -0.709421 0.212499 2.341805152028776e-38
1.144515 -0.714859 0.212173 2.341805152028776e-38
1.137949 -0.719743 0.211689 2.341805152028776e-38
1.132986 -0.725702 0.211527 2.341805152028776e-38
1.128821 -0.732167 0.211515 2.341805152028776e-38
1.123793 -0.738068 0.211341 2.341805152028776e-38
1.119558 -0.744484 0.211316 2.341805152028776e-38
1.115286 -0.750877 0.211286 2.341805152028776e-38
1.110926 -0.757318 0.211269 2.341805152028776e-38
1.106527 -0.763737 0.211246 2.341805152028776e-38
1.101282 -0.769565 0.211062 2.341805152028776e-38
1.096006 -0.775361 0.210872 2.341805152028776e-38
1.092307 -0.782273 0.210986 2.341805152028776e-38
1.088520 -0.789226 0.211110 2.341805152028776e-38
1.083882 -0.795593 0.211076 2.341805152028776e-38
1.077621 -0.800756 0.210725 2.341805152028776e-38
1.072915 -0.807062 0.210679 2.341805152028776e-38
1.068959 -0.813940 0.210781 2.341805152028776e-38
1.063358 -0.819638 0.210579 2.341805152028776e-38
1.053033 -0.821680 0.209448 2.341805152028776e-38
1.662971 -1.362398 0.336714 2.341805152028776e-38
1.769607 -1.467596 0.359976 2.341805152028776e-38
1.850067 -1.553161 0.378110 2.341805152028776e-38
1.232116 -0.730681 0.218165 2.341805152028776e-38
1.177973 -0.707587 0.209286 2.341805152028776e-38
1.159603 -0.705490 0.206725 2.341805152028776e-38
1.153077 -0.710470 0.206265 2.341805152028776e-38
1.145694 -0.714877 0.205649 2.341805152028776e-38
1.141642 -0.721337 0.205630 2.341805152028776e-38
1.135841 -0.726776 0.205322 2.341805152028776e-38
1.131670 -0.733257 0.205312 2.341805152028776e-38
1.127462 -0.739715 0.205295 2.341805152028776e-38
1.122394 -0.745604 0.205123 2.341805152028776e-38
1.117295 -0.751461 0.204944 2.341805152028776e-38
1.112946 -0.757893 0.204924 2.341805152028776e-38
1.108544 -0.764322 0.204903 2.341805152028776e-38
1.102484 -0.769596 0.204576 2.341805152028776e-38
1.098014 -0.775968 0.204544 2.341805152028776e-38
1.094312 -0.782890 0.204656 2.341805152028776e-38
1.091338 -0.790415 0.204923 2.341805152028776e-38
1.085099 -0.795629 0.204590 2.341805152028776e-38
1.079629 -0.801387 0.204402 2.341805152028776e-38
1.075710 -0.808297 0.204509 2.341805152028776e-38
1.070961 -0.814592 0.204459 2.341805152028776e-38
1.066936 -0.821490 0.204561 2.341805152028776e-38
1.057373 -0.824159 0.203616 2.341805152028776e-38
1.713927 -1.402560 0.335975 2.341805152028776e-38
1.810561 -1.499869 0.356573 2.341805152028776e-38
1.876541 -1.573613 0.371302 2.341805152028776e-38
1.207784 -0.715559 0.206868 2.341805152028776e-38
1.173197 -0.704022 0.201621 2.341805152028776e-38
1.159905 -0.704980 0.200018 2.341805152028776e-38
1.152538 -0.709442 0.199428 2.341805152028776e-38
1.146837 -0.714892 0.199125 2.341805152028776e-38
1.142784 -0.721358 0.199108 2.341805152028776e-38
1.136996 -0.726783 0.198806 2.341805152028776e-38
1.132825 -0.733269 0.198797 2.341805152028776e-38
1.128617 -0.739734 0.198783 2.341805152028776e-38
1.124372 -0.746175 0.198763 2.341805152028776e-38
1.120090 -0.752594 0.198737 2.341805152028776e-38
1.114112 -0.757909 0.198423 2.341805152028776e-38
1.108896 -0.763784 0.198259 2.341805152028776e-38
1.104460 -0.770190 0.198235 2.341805152028776e-38
1.100795 -0.777143 0.198350 2.341805152028776e-38
1.096282 -0.783505 0.198315 2.341805152028776e-38
1.090916 -0.789283 0.198133 2.341805152028776e-38
1.087075 -0.796247 0.198249 2.341805152028776e-38
1.082396 -0.802605 0.198214 2.341805152028776e-38
1.078471 -0.809530 0.198319 2.341805152028776e-38
1.074502 -0.816439 0.198417 2.341805152028776e-38
1.068129 -0.821530 0.198076 2.341805152028776e-38
1.066366 -0.830283 0.198617 2.341805152028776e-38
1.738889 -1.421434 0.329686 2.341805152028776e-38
1.843155 -1.525203 0.351084 2.341805152028776e-38
1.904519 -1.595332 0.364477 2.341805152028776e-38
1.192731 -0.705990 0.197410 2.341805152028776e-38
1.170920 -0.701982 0.194446 2.341805152028776e-38
1.160169 -0.704468 0.193319 2.341805152028776e-38
1.152802 -0.708932 0.192751 2.341805152028776e-38
1.147102 -0.714382 0.192459 2.341805152028776e-38
1.142214 -0.720321 0.192303 2.341805152028776e-38
1.138113 -0.726787 0.192289 2.341805152028776e-38
1.133942 -0.733280 0.192282 2.341805152028776e-38
1.129734 -0.739750 0.192270 2.341805152028776e-38
1.125489 -0.746197 0.192252 2.341805152028776e-38
1.118741 -0.750967 0.191805 2.341805152028776e-38
1.115241 -0.757924 0.191921 2.341805152028776e-38
1.111655 -0.764926 0.192045 2.341805152028776e-38
1.106400 -0.770782 0.191882 2.341805152028776e-38
1.101114 -0.776604 0.191714 2.341805152028776e-38
1.098216 -0.784118 0.191962 2.341805152028776e-38
1.093661 -0.790468 0.191924 2.341805152028776e-38
1.088217 -0.796278 0.191757 2.341805152028776e-38
1.083537 -0.802641 0.191724 2.341805152028776e-38
1.079613 -0.809573 0.191827 2.341805152028776e-38
1.074855 -0.815889 0.191783 2.341805152028776e-38
1.073987 -0.825194 0.192436 2.341805152028776e-38
1.786822 -1.459117 0.327330 2.341805152028776e-38
1.876512 -1.551165 0.345354 2.341805152028776e-38
1.918058 -1.604976 0.354658 2.341805152028776e-38
1.231095 -0.718815 0.196040 2.341805152028776e-38
1.186991 -0.701966 0.189631 2.341805152028776e-38
1.170299 -0.700959 0.187581 2.341805152028776e-38
1.161242 -0.704469 0.186766 2.341805152028776e-38
1.153871 -0.708938 0.186219 2.341805152028776e-38
1.149852 -0.715441 0.186211 2.341805152028776e-38
1.144958 -0.721394 0.186061 2.341805152028776e-38
1.140028 -0.727323 0.185908 2.341805152028776e-38
1.135022 -0.733289 0.185766 2.341805152028776e-38
1.129156 -0.738680 0.185483 2.341805152028776e-38
1.120787 -0.742388 0.184786 2.341805152028776e-38
1.114881 -0.747681 0.184493 2.341805152028776e-38
1.113870 -0.756271 0.185011 2.341805152028776e-38
1.111930 -0.764383 0.185404 2.341805152028776e-38
1.108304 -0.771372 0.185520 2.341805152028776e-38
1.104634 -0.778345 0.185630 2.341805152028776e-38
1.101727 -0.785879 0.185872 2.341805152028776e-38
1.097164 -0.792246 0.185835 2.341805152028776e-38
1.090919 -0.797476 0.185535 2.341805152028776e-38
1.086233 -0.803854 0.185505 2.341805152028776e-38
1.079924 -0.809019 0.185197 2.341805152028776e-38
1.075959 -0.815934 0.185292 2.341805152028776e-38
1.083739 -0.831880 0.187420 2.341805152028776e-38
1.727143 -1.392006 0.304001 2.341805152028776e-38
1.834790 -1.496800 0.324402 2.341805152028776e-38
1.902993 -1.571447 0.338009 2.341805152028776e-38
1.927749 -1.611439 0.344015 2.341805152028776e-38
1.215899 -0.709327 0.186665 2.341805152028776e-38
1.182909 -0.698949 0.182191 2.341805152028776e-38
1.169637 -0.699935 0.180734 2.341805152028776e-38
1.160582 -0.703440 0.179950 2.341805152028776e-38
1.155749 -0.709461 0.179817 2.341805152028776e-38
1.151726 -0.715974 0.179811 2.341805152028776e-38
1.146828 -0.721937 0.179668 2.341805152028776e-38
1.141899 -0.727870 0.179519 2.341805152028776e-38
1.137730 -0.734371 0.179513 2.341805152028776e-38
1.127707 -0.737065 0.178584 2.341805152028776e-38
1.116037 -0.738576 0.177387 2.341805152028776e-38
1.111799 -0.744945 0.177368 2.341805152028776e-38
1.113268 -0.755187 0.178263 2.341805152028776e-38
1.112983 -0.764399 0.178902 2.341805152028776e-38
1.110172 -0.771959 0.179147 2.341805152028776e-38
1.107310 -0.779514 0.179386 2.341805152028776e-38
1.103590 -0.786486 0.179489 2.341805152028776e-38
1.098220 -0.792283 0.179323 2.341805152028776e-38
1.093588 -0.798671 0.179294 2.341805152028776e-38
1.088097 -0.804476 0.179134 2.341805152028776e-38
1.083369 -0.810838 0.179101 2.341805152028776e-38
1.077025 -0.815977 0.178800 2.341805152028776e-38
1.105270 -0.847614 0.184264 2.341805152028776e-38
1.779876 -1.433130 0.302001 2.341805152028776e-38
1.865880 -1.520704 0.318018 2.341805152028776e-38
1.914160 -1.579109 0.327740 2.341805152028776e-38
1.935862 -1.616625 0.333013 2.341805152028776e-38
1.207494 -0.703834 0.178484 2.341805152028776e-38
1.179635 -0.696435 0.174934 2.341805152028776e-38
1.168072 -0.698420 0.173785 2.341805152028776e-38
1.160731 -0.702924 0.173279 2.341805152028776e-38
1.155900 -0.708945 0.173153 2.341805152028776e-38
1.151037 -0.714936 0.173021 2.341805152028776e-38
1.146984 -0.721423 0.173011 2.341805152028776e-38
1.143731 -0.728421 0.173122 2.341805152028776e-38
1.139571 -0.734914 0.173113 2.341805152028776e-38
1.130370 -0.738161 0.172346 2.341805152028776e-38
1.122825 -0.742421 0.171827 2.341805152028776e-38
1.119389 -0.749381 0.171936 2.341805152028776e-38
1.117552 -0.757439 0.172293 2.341805152028776e-38
1.114817 -0.764975 0.172526 2.341805152028776e-38
1.112004 -0.772545 0.172763 2.341805152028776e-38
1.109140 -0.780109 0.172995 2.341805152028776e-38
1.105418 -0.787092 0.173095 2.341805152028776e-38
1.100042 -0.792899 0.172937 2.341805152028776e-38
1.095419 -0.799280 0.172906 2.341805152028776e-38
1.090722 -0.805684 0.172880 2.341805152028776e-38
1.085988 -0.812061 0.172848 2.341805152028776e-38
1.078052 -0.816017 0.172306 2.341805152028776e-38
1.840376 -1.480472 0.300632 2.341805152028776e-38
1.900807 -1.547738 0.311902 2.341805152028776e-38
1.932165 -1.592445 0.318489 2.341805152028776e-38
1.956102 -1.631975 0.323950 2.341805152028776e-38
1.199893 -0.698840 0.170530 2.341805152028776e-38
1.178027 -0.694927 0.167968 2.341805152028776e-38
1.169875 -0.698939 0.167352 2.341805152028776e-38
1.163389 -0.703949 0.166983 2.341805152028776e-38
1.158551 -0.709984 0.166863 2.341805152028776e-38
1.153682 -0.715989 0.166737 2.341805152028776e-38
1.148782 -0.721963 0.166607 2.341805152028776e-38
1.145527 -0.728971 0.166715 2.341805152028776e-38
1.141376 -0.735456 0.166703 2.341805152028776e-38
1.137155 -0.741966 0.166697 2.341805152028776e-38
1.132069 -0.747907 0.166564 2.341805152028776e-38
1.126952 -0.753815 0.166427 2.341805152028776e-38
1.123449 -0.760802 0.166528 2.341805152028776e-38
1.119071 -0.767232 0.166506 2.341805152028776e-38
1.115430 -0.774261 0.166613 2.341805152028776e-38
1.111746 -0.781274 0.166715 2.341805152028776e-38
1.107209 -0.787695 0.166691 2.341805152028776e-38
1.102635 -0.794092 0.166661 2.341805152028776e-38
1.098017 -0.800472 0.166629 2.341805152028776e-38
1.092514 -0.806301 0.166483 2.341805152028776e-38
1.088571 -0.813282 0.166576 2.341805152028776e-38
1.082208 -0.818449 0.166298 2.341805152028776e-38
1.783231 -1.415906 0.278808 2.341805152028776e-38
1.872296 -1.504807 0.294043 2.341805152028776e-38
1.924179 -1.565373 0.303551 2.341805152028776e-38
1.950121 -1.605786 0.309038 2.341805152028776e-38
1.962582 -1.635882 0.312472 2.341805152028776e-38
1.240008 -0.712420 0.168640 2.341805152028776e-38
1.193958 -0.694843 0.162906 2.341805152028776e-38
1.178089 -0.694427 0.161265 2.341805152028776e-38
1.172495 -0.699966 0.161025 2.341805152028776e-38
1.165162 -0.704458 0.160551 2.341805152028776e-38
1.160321 -0.710504 0.160436 2.341805152028776e-38
1.154605 -0.715995 0.160200 2.341805152028776e-38
1.150545 -0.722501 0.160193 2.341805152028776e-38
1.148126 -0.730051 0.160415 2.341805152028776e-38
1.144815 -0.737071 0.160518 2.341805152028776e-38
1.138921 -0.742517 0.160279 2.341805152028776e-38
1.134660 -0.749014 0.160269 2.341805152028776e-38
1.130362 -0.755488 0.160255 2.341805152028776e-38
1.126027 -0.761938 0.160236 2.341805152028776e-38
1.120834 -0.767805 0.160095 2.341805152028776e-38
1.117191 -0.774843 0.160200 2.341805152028776e-38
1.113504 -0.781865 0.160299 2.341805152028776e-38
1.109773 -0.788872 0.160393 2.341805152028776e-38
1.105192 -0.795283 0.160366 2.341805152028776e-38
1.099771 -0.801083 0.160217 2.341805152028776e-38
1.092670 -0.805737 0.159843 2.341805152028776e-38
1.088731 -0.812718 0.159933 2.341805152028776e-38
1.095048 -0.827466 0.161537 2.341805152028776e-38
1.816750 -1.441282 0.272675 2.341805152028776e-38
1.901107 -1.526653 0.286613 2.341805152028776e-38
1.946750 -1.582379 0.294816 2.341805152028776e-38
1.962653 -1.614722 0.298571 2.341805152028776e-38
1.967471 -1.638512 0.300701 2.341805152028776e-38
1.221108 -0.701034 0.159172 2.341805152028776e-38
1.191412 -0.692843 0.155807 2.341805152028776e-38
1.179826 -0.694934 0.154796 2.341805152028776e-38
1.172521 -0.699464 0.154342 2.341805152028776e-38
1.167751 -0.705480 0.154221 2.341805152028776e-38
1.162903 -0.711540 0.154112 2.341805152028776e-38
1.157180 -0.717045 0.153886 2.341805152028776e-38
1.153114 -0.723566 0.153881 2.341805152028776e-38
1.149012 -0.730065 0.153870 2.341805152028776e-38
1.146545 -0.737616 0.154080 2.341805152028776e-38
1.141483 -0.743608 0.153963 2.341805152028776e-38
1.137216 -0.750119 0.153955 2.341805152028776e-38
1.132085 -0.756055 0.153829 2.341805152028776e-38
1.126924 -0.761958 0.153700 2.341805152028776e-38
1.123372 -0.768950 0.153790 2.341805152028776e-38
1.118915 -0.775423 0.153776 2.341805152028776e-38
1.116039 -0.783026 0.153984 2.341805152028776e-38
1.112302 -0.790047 0.154076 2.341805152028776e-38
1.106907 -0.795892 0.153938 2.341805152028776e-38
1.100679 -0.801116 0.153684 2.341805152028776e-38
1.095186 -0.806940 0.153547 2.341805152028776e-38
1.094427 -0.816311 0.154083 2.341805152028776e-38
1.860384 -1.474680 0.267606 2.341805152028776e-38
1.933773 -1.551605 0.279408 2.341805152028776e-38
1.964659 -1.595623 0.285149 2.341805152028776e-38
1.967456 -1.617344 0.286850 2.341805152028776e-38
1.969236 -1.638595 0.288442 2.341805152028776e-38
1.210765 -0.694595 0.150999 2.341805152028776e-38
1.189683 -0.691341 0.148853 2.341805152028776e-38
1.180670 -0.694936 0.148209 2.341805152028776e-38
1.175070 -0.700489 0.147991 2.341805152028776e-38
1.169445 -0.706001 0.147768 2.341805152028776e-38
1.163755 -0.711539 0.147554 2.341805152028776e-38
1.157184 -0.716525 0.147231 2.341805152028776e-38
1.153964 -0.723574 0.147334 2.341805152028776e-38
1.150702 -0.730610 0.147432 2.341805152028776e-38
1.147396 -0.737633 0.147527 2.341805152028776e-38
1.142344 -0.743613 0.147412 2.341805152028776e-38
1.138907 -0.750676 0.147513 2.341805152028776e-38
1.132945 -0.756070 0.147286 2.341805152028776e-38
1.129431 -0.763090 0.147378 2.341805152028776e-38
1.124232 -0.768974 0.147250 2.341805152028776e-38
1.120603 -0.776003 0.147342 2.341805152028776e-38
1.116910 -0.783044 0.147435 2.341805152028776e-38
1.113174 -0.790069 0.147523 2.341805152028776e-38
1.106971 -0.795338 0.147285 2.341805152028776e-38
1.102353 -0.801732 0.147257 2.341805152028776e-38
1.096866 -0.807551 0.147125 2.341805152028776e-38
1.104876 -0.823467 0.148819 2.341805152028776e-38
1.802514 -1.410376 0.246953 2.341805152028776e-38
1.900124 -1.504991 0.261485 2.341805152028776e-38
1.962542 -1.573446 0.271284 2.341805152028776e-38
1.979437 -1.606357 0.274852 2.341805152028776e-38
1.981412 -1.627534 0.276374 2.341805152028776e-38
1.980867 -1.646937 0.277574 2.341805152028776e-38
1.243130 -0.703525 0.147569 2.341805152028776e-38
1.204685 -0.690629 0.143464 2.341805152028776e-38
1.189634 -0.690838 0.142134 2.341805152028776e-38
1.183193 -0.695945 0.141828 2.341805152028776e-38
1.177586 -0.701512 0.141620 2.341805152028776e-38
1.171954 -0.707038 0.141408 2.341805152028776e-38
1.166266 -0.712573 0.141201 2.341805152028776e-38
1.160535 -0.718097 0.140996 2.341805152028776e-38
1.156463 -0.724636 0.140993 2.341805152028776e-38
1.152355 -0.731153 0.140985 2.341805152028776e-38
1.149884 -0.738723 0.141178 2.341805152028776e-38
1.145669 -0.745245 0.141170 2.341805152028776e-38
1.140562 -0.751232 0.141061 2.341805152028776e-38
1.134596 -0.756635 0.140845 2.341805152028776e-38
1.131903 -0.764221 0.141036 2.341805152028776e-38
1.126697 -0.770118 0.140915 2.341805152028776e-38
1.122254 -0.776580 0.140899 2.341805152028776e-38
1.118559 -0.783631 0.140988 2.341805152028776e-38
1.114008 -0.790090 0.140970 2.341805152028776e-38
1.109420 -0.796523 0.140949 2.341805152028776e-38
1.105600 -0.803516 0.141025 2.341805152028776e-38
1.098510 -0.808160 0.140692 2.341805152028776e-38
1.128065 -0.840128 0.145082 2.341805152028776e-38
1.846261 -1.443511 0.241521 2.341805152028776e-38
1.932839 -1.529744 0.253973 2.341805152028776e-38
1.981969 -1.587821 0.261595 2.341805152028776e-38
1.994163 -1.617087 0.264391 2.341805152028776e-38
1.995315 -1.637719 0.265743 2.341805152028776e-38
1.990910 -1.654003 0.266375 2.341805152028776e-38
1.230930 -0.696180 0.139236 2.341805152028776e-38
1.201148 -0.688147 0.136300 2.341805152028776e-38
1.192129 -0.691833 0.135718 2.341805152028776e-38
1.183965 -0.695945 0.135231 2.341805152028776e-38
1.178357 -0.701516 0.135034 2.341805152028776e-38
1.171872 -0.706532 0.134734 2.341805152028776e-38
1.167045 -0.712570 0.134633 2.341805152028776e-38
1.163005 -0.719145 0.134634 2.341805152028776e-38
1.159771 -0.726226 0.134730 2.341805152028776e-38
1.156494 -0.733294 0.134821 2.341805152028776e-38
1.153175 -0.740349 0.134908 2.341805152028776e-38
1.147291 -0.745790 0.134702 2.341805152028776e-38
1.141349 -0.751240 0.134501 2.341805152028776e-38
1.137866 -0.758302 0.134590 2.341805152028776e-38
1.134340 -0.765350 0.134675 2.341805152028776e-38
1.128305 -0.770699 0.134462 2.341805152028776e-38
1.123869 -0.777157 0.134445 2.341805152028776e-38
1.118540 -0.783075 0.134335 2.341805152028776e-38
1.115616 -0.790684 0.134515 2.341805152028776e-38
1.111025 -0.797127 0.134495 2.341805152028776e-38
1.106396 -0.803543 0.134470 2.341805152028776e-38
1.098512 -0.807589 0.134053 2.341805152028776e-38
1.895497 -1.480933 0.236258 2.341805152028776e-38
1.972557 -1.560051 0.246958 2.341805152028776e-38
1.996690 -1.598461 0.251099 2.341805152028776e-38
2.008837 -1.627814 0.253766 2.341805152028776e-38
2.009934 -1.648532 0.255056 2.341805152028776e-38
2.001658 -1.661701 0.255168 2.341805152028776e-38
1.224743 -0.692263 0.131699 2.341805152028776e-38
1.202754 -0.688633 0.129742 2.341805152028776e-38
1.192868 -0.691828 0.129097 2.341805152028776e-38
1.185559 -0.696449 0.128727 2.341805152028776e-38
1.179091 -0.701519 0.128447 2.341805152028776e-38
1.174310 -0.707567 0.128349 2.341805152028776e-38
1.170336 -0.714122 0.128345 2.341805152028776e-38
1.166287 -0.720716 0.128347 2.341805152028776e-38
1.163045 -0.727815 0.128438 2.341805152028776e-38
1.158078 -0.733835 0.128339 2.341805152028776e-38
1.153918 -0.740361 0.128329 2.341805152028776e-38
1.148877 -0.746335 0.128225 2.341805152028776e-38
1.144594 -0.752887 0.128221 2.341805152028776e-38
1.141102 -0.759968 0.128306 2.341805152028776e-38
1.137567 -0.767034 0.128388 2.341805152028776e-38
1.131521 -0.772401 0.128186 2.341805152028776e-38
1.126266 -0.778298 0.128074 2.341805152028776e-38
1.121745 -0.784800 0.128064 2.341805152028776e-38
1.117188 -0.791277 0.128049 2.341805152028776e-38
1.112593 -0.797728 0.128030 2.341805152028776e-38
1.107961 -0.804153 0.128008 2.341805152028776e-38
1.100883 -0.808785 0.127703 2.341805152028776e-38
1.834542 -1.415113 0.216429 2.341805152028776e-38
1.941593 -1.515907 0.230040 2.341805152028776e-38
1.998981 -1.579861 0.237894 2.341805152028776e-38
2.019911 -1.615940 0.241462 2.341805152028776e-38
2.027327 -1.641670 0.243442 2.341805152028776e-38
2.022959 -1.658078 0.244019 2.341805152028776e-38
2.010803 -1.668135 0.243660 2.341805152028776e-38
1.219379 -0.688836 0.124326 2.341805152028776e-38
1.203458 -0.688623 0.123087 2.341805152028776e-38
1.195292 -0.692822 0.122653 2.341805152028776e-38
1.186258 -0.696447 0.122126 2.341805152028776e-38
1.181501 -0.702539 0.122037 2.341805152028776e-38
1.175007 -0.707573 0.121768 2.341805152028776e-38
1.171042 -0.714118 0.121762 2.341805152028776e-38
1.167840 -0.721239 0.121853 2.341805152028776e-38
1.162062 -0.726762 0.121675 2.341805152028776e-38
1.156259 -0.732244 0.121493 2.341805152028776e-38
1.152946 -0.739297 0.121573 2.341805152028776e-38
1.148755 -0.745794 0.121561 2.341805152028776e-38
1.146140 -0.753440 0.121735 2.341805152028776e-38
1.141817 -0.759977 0.121728 2.341805152028776e-38
1.137456 -0.766491 0.121717 2.341805152028776e-38
1.132235 -0.772418 0.121615 2.341805152028776e-38
1.126164 -0.777745 0.121420 2.341805152028776e-38
1.120834 -0.783671 0.121321 2.341805152028776e-38
1.117096 -0.790718 0.121396 2.341805152028776e-38
1.113314 -0.797748 0.121468 2.341805152028776e-38
1.107876 -0.803591 0.121359 2.341805152028776e-38
1.110436 -0.815295 0.122129 2.341805152028776e-38
1.877588 -1.447397 0.210014 2.341805152028776e-38
1.968821 -1.536191 0.221164 2.341805152028776e-38
2.019115 -1.594730 0.227819 2.341805152028776e-38
2.033753 -1.625951 0.230499 2.341805152028776e-38
2.036476 -1.648003 0.231848 2.341805152028776e-38
2.028991 -1.661939 0.232044 2.341805152028776e-38
2.020645 -1.675210 0.232145 2.341805152028776e-38
1.214838 -0.685897 0.117104 2.341805152028776e-38
1.202394 -0.687627 0.116265 2.341805152028776e-38
1.194233 -0.691817 0.115855 2.341805152028776e-38
1.186920 -0.696445 0.115524 2.341805152028776e-38
1.182163 -0.702541 0.115441 2.341805152028776e-38
1.178229 -0.709120 0.115438 2.341805152028776e-38
1.172556 -0.714640 0.115264 2.341805152028776e-38
1.165965 -0.719667 0.115015 2.341805152028776e-38
1.155970 -0.722539 0.114429 2.341805152028776e-38
1.151874 -0.729052 0.114425 2.341805152028776e-38
1.152775 -0.738769 0.114920 2.341805152028776e-38
1.149423 -0.745807 0.114992 2.341805152028776e-38
1.147650 -0.753992 0.115239 2.341805152028776e-38
1.142493 -0.759986 0.115149 2.341805152028776e-38
1.138133 -0.766502 0.115140 2.341805152028776e-38
1.133735 -0.772995 0.115127 2.341805152028776e-38
1.127659 -0.778330 0.114943 2.341805152028776e-38
1.122334 -0.784253 0.114849 2.341805152028776e-38
1.119407 -0.791883 0.115004 2.341805152028776e-38
1.114808 -0.798346 0.114988 2.341805152028776e-38
1.113400 -0.807122 0.115303 2.341805152028776e-38
1.921412 -1.480288 0.203177 2.341805152028776e-38
1.995227 -1.555858 0.211887 2.341805152028776e-38
2.029814 -1.602186 0.216512 2.341805152028776e-38
2.045202 -1.634093 0.219131 2.341805152028776e-38
2.043236 -1.652452 0.219908 2.341805152028776e-38
2.038039 -1.668321 0.220344 2.341805152028776e-38
2.033493 -1.684823 0.220857 2.341805152028776e-38
1.211123 -0.683448 0.110018 2.341805152028776e-38
1.200419 -0.686147 0.109386 2.341805152028776e-38
1.193998 -0.691311 0.109154 2.341805152028776e-38
1.188406 -0.696947 0.109001 2.341805152028776e-38
1.183645 -0.703051 0.108923 2.341805152028776e-38
1.178854 -0.709124 0.108842 2.341805152028776e-38
1.174883 -0.715684 0.108837 2.341805152028776e-38
1.166596 -0.719666 0.108443 2.341805152028776e-38
1.159979 -0.724654 0.108206 2.341805152028776e-38
1.157556 -0.732255 0.108361 2.341805152028776e-38
1.155084 -0.739853 0.108512 2.341805152028776e-38
1.151726 -0.746904 0.108581 2.341805152028776e-38
1.147456 -0.753448 0.108576 2.341805152028776e-38
1.143963 -0.760545 0.108649 2.341805152028776e-38
1.139599 -0.767070 0.108641 2.341805152028776e-38
1.134374 -0.773009 0.108550 2.341805152028776e-38
1.128297 -0.778347 0.108377 2.341805152028776e-38
1.123797 -0.784833 0.108366 2.341805152028776e-38
1.120867 -0.792472 0.108513 2.341805152028776e-38
1.115454 -0.798363 0.108420 2.341805152028776e-38
1.124542 -0.814746 0.109741 2.341805152028776e-38
1.855030 -1.411110 0.184058 2.341805152028776e-38
1.954952 -1.505271 0.194800 2.341805152028776e-38
2.020807 -1.574911 0.202226 2.341805152028776e-38
2.039670 -1.609023 0.205011 2.341805152028776e-38
2.042568 -1.631034 0.206223 2.341805152028776e-38
2.043725 -1.651884 0.207271 2.341805152028776e-38
2.040078 -1.669017 0.207840 2.341805152028776e-38
2.035532 -1.685530 0.208324 2.341805152028776e-38
1.209105 -0.681978 0.103128 2.341805152028776e-38
1.201003 -0.686150 0.102757 2.341805152028776e-38
1.195451 -0.691805 0.102612 2.341805152028776e-38
1.189855 -0.697448 0.102469 2.341805152028776e-38
1.185949 -0.704069 0.102470 2.341805152028776e-38
1.181152 -0.710155 0.102394 2.341805152028776e-38
1.177175 -0.716728 0.102390 2.341805152028776e-38
1.173131 -0.723328 0.102389 2.341805152028776e-38
1.167339 -0.728881 0.102241 2.341805152028776e-38
1.161521 -0.734392 0.102090 2.341805152028776e-38
1.157357 -0.740936 0.102085 2.341805152028776e-38
1.153994 -0.748000 0.102150 2.341805152028776e-38
1.150559 -0.755093 0.102218 2.341805152028776e-38
1.147057 -0.762207 0.102288 2.341805152028776e-38
1.142683 -0.768749 0.102280 2.341805152028776e-38
1.137448 -0.774706 0.102195 2.341805152028776e-38
1.131361 -0.780062 0.102033 2.341805152028776e-38
1.126858 -0.786554 0.102022 2.341805152028776e-38
1.123104 -0.793635 0.102086 2.341805152028776e-38
1.116873 -0.798958 0.101925 2.341805152028776e-38
1.911646 -1.453396 0.178084 2.341805152028776e-38
1.993993 -1.534509 0.186548 2.341805152028776e-38
2.030609 -1.581704 0.190789 2.341805152028776e-38
2.046329 -1.613386 0.193108 2.341805152028776e-38
2.055444 -1.640414 0.194838 2.341805152028776e-38
2.049571 -1.655698 0.195158 2.341805152028776e-38
2.045904 -1.672866 0.195694 2.341805152028776e-38
2.035960 -1.684961 0.195632 2.341805152028776e-38
1.210523 -0.682468 0.096544 2.341805152028776e-38
1.202417 -0.686647 0.096197 2.341805152028776e-38
1.196868 -0.692298 0.096060 2.341805152028776e-38
1.192129 -0.698453 0.095996 2.341805152028776e-38
1.188218 -0.705087 0.095998 2.341805152028776e-38
1.182559 -0.710672 0.095858 2.341805152028776e-38
1.179432 -0.717771 0.095923 2.341805152028776e-38
1.173691 -0.723326 0.095783 2.341805152028776e-38
1.169590 -0.729938 0.095784 2.341805152028776e-38
1.163765 -0.735462 0.095643 2.341805152028776e-38
1.161276 -0.743094 0.095777 2.341805152028776e-38
1.157064 -0.749637 0.095769 2.341805152028776e-38
1.153627 -0.756737 0.095831 2.341805152028776e-38
1.148453 -0.762765 0.095758 2.341805152028776e-38
1.144076 -0.769315 0.095752 2.341805152028776e-38
1.138013 -0.774717 0.095603 2.341805152028776e-38
1.133568 -0.781208 0.095591 2.341805152028776e-38
1.128247 -0.787133 0.095510 2.341805152028776e-38
1.125305 -0.794797 0.095639 2.341805152028776e-38
1.116632 -0.798392 0.095281 2.341805152028776e-38
1.961901 -1.490853 0.170888 2.341805152028776e-38
2.029052 -1.560705 0.177492 2.341805152028776e-38
2.052943 -1.598299 0.180353 2.341805152028776e-38
2.059973 -1.623304 0.181760 2.341805152028776e-38
2.062020 -1.644813 0.182757 2.341805152028776e-38
2.048361 -1.653869 0.182366 2.341805152028776e-38
2.039301 -1.666609 0.182384 2.341805152028776e-38
2.035544 -1.683752 0.182879 2.341805152028776e-38
1.213644 -0.683937 0.090079 2.341805152028776e-38
1.205528 -0.688133 0.089756 2.341805152028776e-38
1.199976 -0.693790 0.089628 2.341805152028776e-38
1.193507 -0.698954 0.089440 2.341805152028776e-38
1.188734 -0.705087 0.089377 2.341805152028776e-38
1.184786 -0.711702 0.089377 2.341805152028776e-38
1.182506 -0.719332 0.089502 2.341805152028776e-38
1.176762 -0.724893 0.089370 2.341805152028776e-38
1.170958 -0.730467 0.089243 2.341805152028776e-38
1.165973 -0.736531 0.089176 2.341805152028776e-38
1.163479 -0.744175 0.089301 2.341805152028776e-38
1.159261 -0.750731 0.089294 2.341805152028776e-38
1.154990 -0.757286 0.089287 2.341805152028776e-38
1.149813 -0.763321 0.089219 2.341805152028776e-38
1.146261 -0.770436 0.089278 2.341805152028776e-38
1.140190 -0.775851 0.089140 2.341805152028776e-38
1.134917 -0.781788 0.089064 2.341805152028776e-38
1.130417 -0.788282 0.089053 2.341805152028776e-38
1.126655 -0.795382 0.089109 2.341805152028776e-38
1.122848 -0.802466 0.089163 2.341805152028776e-38
1.897326 -1.423667 0.153143 2.341805152028776e-38
2.001011 -1.519859 0.162198 2.341805152028776e-38
2.043505 -1.571084 0.166350 2.341805152028776e-38
2.064201 -1.606311 0.168756 2.341805152028776e-38
2.068068 -1.628897 0.169808 2.341805152028776e-38
2.062285 -1.644232 0.170093 2.341805152028776e-38
2.052510 -1.656422 0.170051 2.341805152028776e-38
2.047300 -1.672343 0.170390 2.341805152028776e-38
2.049664 -1.694619 0.171366 2.341805152028776e-38
1.214991 -0.684425 0.083467 2.341805152028776e-38
1.206871 -0.688629 0.083168 2.341805152028776e-38
1.201322 -0.694283 0.083048 2.341805152028776e-38
1.195710 -0.699959 0.082934 2.341805152028776e-38
1.191790 -0.706613 0.082936 2.341805152028776e-38
1.188689 -0.713759 0.082995 2.341805152028776e-38
1.183839 -0.719855 0.082933 2.341805152028776e-38
1.177247 -0.724891 0.082750 2.341805152028776e-38
1.172290 -0.730995 0.082692 2.341805152028776e-38
1.167302 -0.737066 0.082631 2.341805152028776e-38
1.163124 -0.743643 0.082627 2.341805152028776e-38
1.158908 -0.750196 0.082621 2.341805152028776e-38
1.155481 -0.757288 0.082673 2.341805152028776e-38
1.150304 -0.763326 0.082611 2.341805152028776e-38
1.146752 -0.770443 0.082666 2.341805152028776e-38
1.141506 -0.776422 0.082598 2.341805152028776e-38
1.136229 -0.782366 0.082528 2.341805152028776e-38
1.132551 -0.789429 0.082576 2.341805152028776e-38
1.127966 -0.795967 0.082569 2.341805152028776e-38
1.965269 -1.474003 0.146813 2.341805152028776e-38
2.035317 -1.545241 0.152692 2.341805152028776e-38
2.065021 -1.586935 0.155582 2.341805152028776e-38
2.076971 -1.615546 0.157154 2.341805152028776e-38
2.077664 -1.635721 0.157888 2.341805152028776e-38
2.070281 -1.649868 0.158033 2.341805152028776e-38
2.055034 -1.657718 0.157578 2.341805152028776e-38
2.052138 -1.675547 0.158071 2.341805152028776e-38
2.049873 -1.694036 0.158618 2.341805152028776e-38
1.207818 -0.697774 0.076788 2.341805152028776e-38
1.198739 -0.701469 0.076463 2.341805152028776e-38
1.193952 -0.707630 0.076411 2.341805152028776e-38
1.189133 -0.713760 0.076356 2.341805152028776e-38
1.184283 -0.719859 0.076298 2.341805152028776e-38
1.179396 -0.725935 0.076240 2.341805152028776e-38
1.173586 -0.731523 0.076131 2.341805152028776e-38
1.169438 -0.738135 0.076130 2.341805152028776e-38
1.165254 -0.744723 0.076127 2.341805152028776e-38
