VERSION .7
FIELDS x y z rgb
SIZE 4 4 4 4
TYPE F F F F
COUNT 1 1 1 1
WIDTH 976
HEIGHT 1
VIEWPOINT 0 0 0 1 0 0 0
POINTS 976
DATA ascii
0.774956 0.910123 0.510999 2.341805152028776e-38
0.779036 0.902750 0.510250 2.341805152028776e-38
0.783660 0.896061 0.509880 2.341805152028776e-38
0.788840 0.890045 0.509890 2.341805152028776e-38
0.794529 0.884730 0.510305 2.341805152028776e-38
0.798948 0.878025 0.509919 2.341805152028776e-38
0.803315 0.871307 0.509518 2.341805152028776e-38
0.809512 0.866588 0.510291 2.341805152028776e-38
0.813788 0.859830 0.509864 2.341805152028776e-38
0.819270 0.854395 0.510222 2.341805152028776e-38
0.824672 0.848963 0.510587 2.341805152028776e-38
0.830038 0.843503 0.510939 2.341805152028776e-38
0.835371 0.838015 0.511280 2.341805152028776e-38
0.840668 0.832499 0.511609 2.341805152028776e-38
0.845274 0.826315 0.511528 2.341805152028776e-38
0.850475 0.820764 0.511842 2.341805152028776e-38
0.787979 0.972998 0.525860 2.341805152028776e-38
0.769164 0.936936 0.509669 2.341805152028776e-38
0.768735 0.923885 0.505865 2.341805152028776e-38
0.772924 0.916524 0.505147 2.341805152028776e-38
0.778249 0.910555 0.505192 2.341805152028776e-38
0.782927 0.903865 0.504834 2.341805152028776e-38
0.787553 0.897158 0.504463 2.341805152028776e-38
0.792090 0.890461 0.504091 2.341805152028776e-38
0.797166 0.884450 0.504106 2.341805152028776e-38
0.802820 0.879096 0.504499 2.341805152028776e-38
0.808439 0.873712 0.504879 2.341805152028776e-38
0.812765 0.866954 0.504465 2.341805152028776e-38
0.817038 0.860183 0.504037 2.341805152028776e-38
0.823126 0.855424 0.504791 2.341805152028776e-38
0.829176 0.850635 0.505538 2.341805152028776e-38
0.834553 0.845155 0.505881 2.341805152028776e-38
0.839245 0.838996 0.505820 2.341805152028776e-38
0.843894 0.832817 0.505747 2.341805152028776e-38
0.848499 0.826620 0.505661 2.341805152028776e-38
0.852342 0.819809 0.505196 2.341805152028776e-38
0.787908 0.969166 0.517516 2.341805152028776e-38
0.773036 0.938113 0.504198 2.341805152028776e-38
0.773179 0.925750 0.500816 2.341805152028776e-38
0.776180 0.916958 0.499334 2.341805152028776e-38
0.781505 0.910976 0.499372 2.341805152028776e-38
0.785575 0.903576 0.498629 2.341805152028776e-38
0.790795 0.897559 0.498644 2.341805152028776e-38
0.794689 0.890178 0.497896 2.341805152028776e-38
0.800999 0.885528 0.498676 2.341805152028776e-38
0.806036 0.879477 0.498673 2.341805152028776e-38
0.811030 0.873405 0.498657 2.341805152028776e-38
0.815981 0.867310 0.498628 2.341805152028776e-38
0.820864 0.861211 0.498596 2.341805152028776e-38
0.826309 0.855780 0.498953 2.341805152028776e-38
0.831074 0.849661 0.498911 2.341805152028776e-38
0.836445 0.844177 0.499245 2.341805152028776e-38
0.841781 0.838665 0.499566 2.341805152028776e-38
0.847082 0.833125 0.499875 2.341805152028776e-38
0.850992 0.826299 0.499411 2.341805152028776e-38
0.856822 0.821394 0.500111 2.341805152028776e-38
0.785986 0.963183 0.508087 2.341805152028776e-38
0.773926 0.935714 0.496812 2.341805152028776e-38
0.774623 0.924061 0.493842 2.341805152028776e-38
0.778199 0.915972 0.492750 2.341805152028776e-38
0.782912 0.909284 0.492403 2.341805152028776e-38
0.787572 0.902580 0.492042 2.341805152028776e-38
0.792136 0.895889 0.491683 2.341805152028776e-38
0.797863 0.890574 0.492080 2.341805152028776e-38
0.803556 0.885226 0.492464 2.341805152028776e-38
0.807963 0.878487 0.492074 2.341805152028776e-38
0.812948 0.872411 0.492052 2.341805152028776e-38
0.818524 0.866984 0.492399 2.341805152028776e-38
0.824008 0.861569 0.492757 2.341805152028776e-38
0.828169 0.854799 0.492340 2.341805152028776e-38
0.833572 0.849336 0.492676 2.341805152028776e-38
0.838941 0.843845 0.492999 2.341805152028776e-38
0.844275 0.838325 0.493310 2.341805152028776e-38
0.849564 0.832785 0.493614 2.341805152028776e-38
0.856097 0.828538 0.494695 2.341805152028776e-38
0.861276 0.822971 0.494997 2.341805152028776e-38
0.784559 0.957908 0.499104 2.341805152028776e-38
0.775942 0.934729 0.490200 2.341805152028776e-38
0.777805 0.924487 0.488008 2.341805152028776e-38
0.780772 0.915679 0.486549 2.341805152028776e-38
0.785478 0.908983 0.486200 2.341805152028776e-38
0.789506 0.901582 0.485467 2.341805152028776e-38
0.794655 0.895593 0.485490 2.341805152028776e-38
0.800380 0.890270 0.485876 2.341805152028776e-38
0.804199 0.882860 0.485121 2.341805152028776e-38
0.806701 0.874083 0.483599 2.341805152028776e-38
0.813554 0.870053 0.484701 2.341805152028776e-38
0.819720 0.865326 0.485427 2.341805152028776e-38
0.826473 0.861250 0.486531 2.341805152028776e-38
0.831272 0.855136 0.486491 2.341805152028776e-38
0.836029 0.849001 0.486438 2.341805152028776e-38
0.840742 0.842846 0.486374 2.341805152028776e-38
0.848043 0.839276 0.487810 2.341805152028776e-38
0.853303 0.833746 0.488121 2.341805152028776e-38
0.857849 0.827557 0.488046 2.341805152028776e-38
0.863692 0.822625 0.488718 2.341805152028776e-38
0.784234 0.954052 0.490920 2.341805152028776e-38
0.779100 0.935160 0.484334 2.341805152028776e-38
0.779750 0.923484 0.481423 2.341805152028776e-38
0.783303 0.915376 0.480346 2.341805152028776e-38
0.787394 0.907969 0.479625 2.341805152028776e-38
0.792600 0.901982 0.479649 2.341805152028776e-38
0.797749 0.895980 0.479666 2.341805152028776e-38
0.804099 0.891334 0.480414 2.341805152028776e-38
0.807291 0.883222 0.479291 2.341805152028776e-38
0.811676 0.876475 0.478899 2.341805152028776e-38
0.816003 0.869717 0.478495 2.341805152028776e-38
0.822141 0.865003 0.479218 2.341805152028776e-38
0.828253 0.860252 0.479930 2.341805152028776e-38
0.834987 0.856127 0.481004 2.341805152028776e-38
0.839095 0.849316 0.480574 2.341805152028776e-38
0.844464 0.843805 0.480878 2.341805152028776e-38
0.849777 0.838281 0.481179 2.341805152028776e-38
0.855682 0.833405 0.481860 2.341805152028776e-38
0.860223 0.827208 0.481780 2.341805152028776e-38
0.869429 0.825461 0.484311 2.341805152028776e-38
0.785026 0.951619 0.483508 2.341805152028776e-38
0.779832 0.932724 0.476995 2.341805152028776e-38
0.782852 0.923889 0.475576 2.341805152028776e-38
0.786398 0.915768 0.474507 2.341805152028776e-38
0.791076 0.909062 0.474162 2.341805152028776e-38
0.796272 0.903069 0.474187 2.341805152028776e-38
0.800806 0.896358 0.473832 2.341805152028776e-38
0.806536 0.891010 0.474199 2.341805152028776e-38
0.814746 0.888373 0.476023 2.341805152028776e-38
0.815994 0.878177 0.473793 2.341805152028776e-38
0.820294 0.871423 0.473403 2.341805152028776e-38
0.825161 0.865344 0.473376 2.341805152028776e-38
0.831924 0.861250 0.474443 2.341805152028776e-38
0.836718 0.855116 0.474393 2.341805152028776e-38
0.841470 0.848961 0.474331 2.341805152028776e-38
0.846836 0.843442 0.474625 2.341805152028776e-38
0.852777 0.838588 0.475301 2.341805152028776e-38
0.858686 0.833701 0.475968 2.341805152028776e-38
0.863227 0.827492 0.475884 2.341805152028776e-38
0.873122 0.826374 0.478748 2.341805152028776e-38
0.785762 0.949172 0.476122 2.341805152028776e-38
0.782905 0.933133 0.471126 2.341805152028776e-38
0.785311 0.923575 0.469358 2.341805152028776e-38
0.790063 0.916856 0.469019 2.341805152028776e-38
0.794711 0.910157 0.468685 2.341805152028776e-38
0.798676 0.902751 0.467981 2.341805152028776e-38
0.803825 0.896725 0.467988 2.341805152028776e-38
0.810811 0.892746 0.469070 2.341805152028776e-38
0.817779 0.888718 0.470141 2.341805152028776e-38
0.819638 0.879197 0.468301 2.341805152028776e-38
0.823917 0.872443 0.467919 2.341805152028776e-38
0.829433 0.867021 0.468252 2.341805152028776e-38
0.836211 0.862907 0.469300 2.341805152028776e-38
0.840361 0.856088 0.468882 2.341805152028776e-38
0.845116 0.849918 0.468816 2.341805152028776e-38
0.849800 0.843748 0.468749 2.341805152028776e-38
0.855074 0.838235 0.469048 2.341805152028776e-38
0.861652 0.833988 0.470066 2.341805152028776e-38
0.866866 0.828411 0.470343 2.341805152028776e-38
0.878815 0.829195 0.474263 2.341805152028776e-38
0.787037 0.947431 0.469117 2.341805152028776e-38
0.784736 0.932102 0.464533 2.341805152028776e-38
0.787122 0.922538 0.462782 2.341805152028776e-38
0.792453 0.916536 0.462805 2.341805152028776e-38
0.796466 0.909134 0.462118 2.341805152028776e-38
0.801038 0.902422 0.461775 2.341805152028776e-38
0.807431 0.897778 0.462492 2.341805152028776e-38
0.812542 0.891712 0.462481 2.341805152028776e-38
0.817608 0.885624 0.462459 2.341805152028776e-38
0.821951 0.878861 0.462082 2.341805152028776e-38
0.828150 0.874132 0.462776 2.341805152028776e-38
0.833030 0.868017 0.462741 2.341805152028776e-38
0.837867 0.861880 0.462694 2.341805152028776e-38
0.843316 0.856387 0.462994 2.341805152028776e-38
0.848069 0.850206 0.462923 2.341805152028776e-38
0.852058 0.843392 0.462505 2.341805152028776e-38
0.857998 0.838524 0.463156 2.341805152028776e-38
0.863240 0.832971 0.463435 2.341805152028776e-38
0.868447 0.827391 0.463703 2.341805152028776e-38
0.883809 0.831369 0.469371 2.341805152028776e-38
0.809473 0.984231 0.477874 2.341805152028776e-38
0.788260 0.945679 0.462128 2.341805152028776e-38
0.786519 0.931061 0.457949 2.341805152028776e-38
0.790102 0.922913 0.456918 2.341805152028776e-38
0.794788 0.916214 0.456595 2.341805152028776e-38
0.800028 0.910210 0.456617 2.341805152028776e-38
0.805225 0.904180 0.456626 2.341805152028776e-38
0.811005 0.898821 0.456977 2.341805152028776e-38
0.814857 0.891359 0.456255 2.341805152028776e-38
0.819270 0.884586 0.455879 2.341805152028776e-38
0.825503 0.879880 0.456570 2.341805152028776e-38
0.831066 0.874457 0.456896 2.341805152028776e-38
0.835298 0.867656 0.456502 2.341805152028776e-38
0.840130 0.861512 0.456450 2.341805152028776e-38
0.846890 0.857342 0.457451 2.341805152028776e-38
0.850954 0.850509 0.457035 2.341805152028776e-38
0.854275 0.843027 0.456262 2.341805152028776e-38
0.858876 0.836848 0.456188 2.341805152028776e-38
0.864781 0.831944 0.456813 2.341805152028776e-38
0.871337 0.827649 0.457784 2.341805152028776e-38
0.890823 0.835453 0.465511 2.341805152028776e-38
0.806580 0.977417 0.468280 2.341805152028776e-38
0.788830 0.943195 0.454809 2.341805152028776e-38
0.788862 0.930724 0.451719 2.341805152028776e-38
0.794247 0.924715 0.451746 2.341805152028776e-38
0.797697 0.916589 0.450732 2.341805152028776e-38
0.802317 0.909870 0.450401 2.341805152028776e-38
0.806884 0.903134 0.450057 2.341805152028776e-38
0.812029 0.897077 0.450049 2.341805152028776e-38
0.816497 0.890305 0.449679 2.341805152028776e-38
0.822781 0.885611 0.450362 2.341805152028776e-38
0.829022 0.880889 0.451040 2.341805152028776e-38
0.833945 0.874773 0.451008 2.341805152028776e-38
0.838174 0.867961 0.450614 2.341805152028776e-38
0.843006 0.861805 0.450558 2.341805152028776e-38
0.848448 0.856298 0.450842 2.341805152028776e-38
0.852475 0.849481 0.450437 2.341805152028776e-38
0.857118 0.843310 0.450370 2.341805152028776e-38
0.861719 0.837119 0.450291 2.341805152028776e-38
0.868303 0.832853 0.451255 2.341805152028776e-38
0.874189 0.827898 0.451856 2.341805152028776e-38
0.896435 0.838273 0.460895 2.341805152028776e-38
0.804801 0.972034 0.459450 2.341805152028776e-38
0.790550 0.942139 0.448202 2.341805152028776e-38
0.791771 0.931092 0.445833 2.341805152028776e-38
0.795898 0.923670 0.445179 2.341805152028776e-38
0.800568 0.916955 0.444859 2.341805152028776e-38
0.805808 0.910927 0.444871 2.341805152028776e-38
0.811005 0.904874 0.444871 2.341805152028776e-38
0.816158 0.898797 0.444859 2.341805152028776e-38
0.819983 0.891324 0.444151 2.341805152028776e-38
0.825618 0.885940 0.444482 2.341805152028776e-38
0.830575 0.879843 0.444457 2.341805152028776e-38
0.836138 0.874402 0.444765 2.341805152028776e-38
0.841013 0.868256 0.444716 2.341805152028776e-38
0.847159 0.863428 0.445347 2.341805152028776e-38
0.851919 0.857260 0.445290 2.341805152028776e-38
0.855282 0.849766 0.444540 2.341805152028776e-38
0.859925 0.843583 0.444469 2.341805152028776e-38
0.866546 0.839339 0.445425 2.341805152028776e-38
0.872471 0.834401 0.446025 2.341805152028776e-38
0.876323 0.827495 0.445574 2.341805152028776e-38
0.902018 0.841092 0.456238 2.341805152028776e-38
0.804151 0.968084 0.451358 2.341805152028776e-38
0.792830 0.941792 0.441941 2.341805152028776e-38
0.793403 0.930032 0.439266 2.341805152028776e-38
0.796888 0.921903 0.438282 2.341805152028776e-38
0.801542 0.915188 0.437961 2.341805152028776e-38
0.807393 0.909864 0.438307 2.341805152028776e-38
0.812580 0.903808 0.438302 2.341805152028776e-38
0.819625 0.899813 0.439303 2.341805152028776e-38
0.824056 0.893038 0.438951 2.341805152028776e-38
0.829061 0.886948 0.438933 2.341805152028776e-38
0.834022 0.880835 0.438904 2.341805152028776e-38
0.838940 0.874700 0.438863 2.341805152028776e-38
0.843160 0.867868 0.438470 2.341805152028776e-38
0.848638 0.862369 0.438749 2.341805152028776e-38
0.854030 0.856882 0.439039 2.341805152028776e-38
0.858052 0.850043 0.438634 2.341805152028776e-38
0.864038 0.845163 0.439243 2.341805152028776e-38
0.869321 0.839594 0.439499 2.341805152028776e-38
0.874570 0.833996 0.439743 2.341805152028776e-38
0.878386 0.827106 0.439306 2.341805152028776e-38
0.909646 0.845823 0.452562 2.341805152028776e-38
0.800417 0.960499 0.441644 2.341805152028776e-38
0.794459 0.940715 0.435347 2.341805152028776e-38
0.795587 0.929686 0.433046 2.341805152028776e-38
0.800296 0.922973 0.432738 2.341805152028776e-38
0.804953 0.916243 0.432418 2.341805152028776e-38
0.810811 0.910904 0.432755 2.341805152028776e-38
0.816003 0.904831 0.432745 2.341805152028776e-38
0.821139 0.898744 0.432729 2.341805152028776e-38
0.826182 0.892670 0.432718 2.341805152028776e-38
0.831826 0.887260 0.433031 2.341805152028776e-38
0.836138 0.880453 0.432662 2.341805152028776e-38
0.840399 0.873632 0.432281 2.341805152028776e-38
0.845922 0.868146 0.432560 2.341805152028776e-38
0.851372 0.862660 0.432843 2.341805152028776e-38
0.856099 0.856496 0.432788 2.341805152028776e-38
0.861454 0.850973 0.433057 2.341805152028776e-38
0.866774 0.845421 0.433316 2.341805152028776e-38
0.872059 0.839840 0.433564 2.341805152028776e-38
0.877308 0.834232 0.433801 2.341805152028776e-38
0.882465 0.828644 0.434052 2.341805152028776e-38
0.921406 0.854388 0.450840 2.341805152028776e-38
0.815047 0.988084 0.445111 2.341805152028776e-38
0.797202 0.953624 0.432350 2.341805152028776e-38
0.796028 0.939636 0.428766 2.341805152028776e-38
0.798345 0.930047 0.427155 2.341805152028776e-38
0.803052 0.923323 0.426847 2.341805152028776e-38
0.808331 0.917289 0.426857 2.341805152028776e-38
0.813567 0.911230 0.426855 2.341805152028776e-38
0.818125 0.904446 0.426511 2.341805152028776e-38
0.823227 0.898374 0.426501 2.341805152028776e-38
0.828265 0.892293 0.426486 2.341805152028776e-38
0.833907 0.886876 0.426790 2.341805152028776e-38
0.838863 0.880745 0.426753 2.341805152028776e-38
0.844432 0.875270 0.427035 2.341805152028776e-38
0.848638 0.868421 0.426646 2.341805152028776e-38
0.854068 0.862942 0.426929 2.341805152028776e-38
0.859463 0.857433 0.427202 2.341805152028776e-38
0.864152 0.851233 0.427131 2.341805152028776e-38
0.869473 0.845670 0.427381 2.341805152028776e-38
0.875440 0.840731 0.427954 2.341805152028776e-38
0.879980 0.834485 0.427863 2.341805152028776e-38
0.885138 0.828886 0.428106 2.341805152028776e-38
0.930414 0.860389 0.447656 2.341805152028776e-38
0.817472 1.001245 0.441819 2.341805152028776e-38
0.801023 0.968055 0.429903 2.341805152028776e-38
0.795122 0.948183 0.423786 2.341805152028776e-38
0.796308 0.937117 0.421551 2.341805152028776e-38
0.799831 0.928966 0.420607 2.341805152028776e-38
0.804527 0.922238 0.420298 2.341805152028776e-38
0.810423 0.916909 0.420628 2.341805152028776e-38
0.815654 0.910843 0.420622 2.341805152028776e-38
0.820196 0.904059 0.420281 2.341805152028776e-38
0.825913 0.898691 0.420599 2.341805152028776e-38
0.832239 0.893983 0.421232 2.341805152028776e-38
0.835946 0.886483 0.420550 2.341805152028776e-38
0.840898 0.880345 0.420508 2.341805152028776e-38
0.845807 0.874184 0.420455 2.341805152028776e-38
0.851296 0.868706 0.420732 2.341805152028776e-38
0.856727 0.863215 0.421007 2.341805152028776e-38
0.862124 0.857696 0.421271 2.341805152028776e-38
0.867486 0.852147 0.421524 2.341805152028776e-38
0.871457 0.845253 0.421112 2.341805152028776e-38
0.876738 0.839657 0.421344 2.341805152028776e-38
0.882615 0.834729 0.421917 2.341805152028776e-38
0.887775 0.829119 0.422152 2.341805152028776e-38
0.935254 0.862543 0.442412 2.341805152028776e-38
0.807104 0.985500 0.428614 2.341805152028776e-38
0.797737 0.961126 0.420685 2.341805152028776e-38
0.794794 0.944908 0.416246 2.341805152028776e-38
0.797762 0.936030 0.415003 2.341805152028776e-38
0.802509 0.929308 0.414708 2.341805152028776e-38
0.807826 0.923282 0.414720 2.341805152028776e-38
0.812472 0.916521 0.414400 2.341805152028776e-38
0.818332 0.911152 0.414710 2.341805152028776e-38
0.824118 0.905779 0.415022 2.341805152028776e-38
0.828562 0.898999 0.414690 2.341805152028776e-38
0.833600 0.892896 0.414667 2.341805152028776e-38
0.838594 0.886769 0.414633 2.341805152028776e-38
0.843546 0.880620 0.414587 2.341805152028776e-38
0.849108 0.875132 0.414855 2.341805152028776e-38
0.853916 0.868982 0.414810 2.341805152028776e-38
0.859349 0.863481 0.415077 2.341805152028776e-38
0.864748 0.857951 0.415333 2.341805152028776e-38
0.868759 0.851066 0.414933 2.341805152028776e-38
0.874080 0.845486 0.415167 2.341805152028776e-38
0.879333 0.839903 0.415404 2.341805152028776e-38
0.885214 0.834965 0.415964 2.341805152028776e-38
0.889683 0.828700 0.415868 2.341805152028776e-38
0.800824 0.974867 0.417800 2.341805152028776e-38
0.796800 0.957101 0.412807 2.341805152028776e-38
0.798056 0.945991 0.410639 2.341805152028776e-38
0.801638 0.937817 0.409726 2.341805152028776e-38
0.805770 0.930359 0.409116 2.341805152028776e-38
0.811092 0.924317 0.409124 2.341805152028776e-38
0.815110 0.916832 0.408489 2.341805152028776e-38
0.820968 0.911455 0.408792 2.341805152028776e-38
0.825452 0.904688 0.408471 2.341805152028776e-38
0.831173 0.899299 0.408772 2.341805152028776e-38
0.837507 0.894569 0.409379 2.341805152028776e-38
0.842511 0.888424 0.409342 2.341805152028776e-38
0.847470 0.882254 0.409293 2.341805152028776e-38
0.853014 0.876770 0.409564 2.341805152028776e-38
0.857165 0.869925 0.409198 2.341805152028776e-38
0.861934 0.863738 0.409139 2.341805152028776e-38
0.865986 0.856864 0.408751 2.341805152028776e-38
0.872699 0.852627 0.409625 2.341805152028776e-38
0.879392 0.848345 0.410489 2.341805152028776e-38
0.883950 0.842104 0.410411 2.341805152028776e-38
0.888466 0.835843 0.410323 2.341805152028776e-38
0.891549 0.828273 0.409585 2.341805152028776e-38
0.796861 0.967152 0.408353 2.341805152028776e-38
0.798238 0.955983 0.406217 2.341805152028776e-38
0.798828 0.944162 0.403774 2.341805152028776e-38
0.801152 0.934546 0.402248 2.341805152028776e-38
0.805881 0.927814 0.401952 2.341805152028776e-38
0.812441 0.923205 0.402578 2.341805152028776e-38
0.817711 0.917134 0.402571 2.341805152028776e-38
0.823542 0.911768 0.402874 2.341805152028776e-38
0.828665 0.905691 0.402866 2.341805152028776e-38
0.834392 0.900287 0.403159 2.341805152028776e-38
0.838784 0.893465 0.402817 2.341805152028776e-38
0.842469 0.885940 0.402150 2.341805152028776e-38
0.849387 0.881831 0.403036 2.341805152028776e-38
0.855564 0.877041 0.403621 2.341805152028776e-38
0.859045 0.869510 0.402944 2.341805152028776e-38
0.864481 0.863988 0.403194 2.341805152028776e-38
0.869883 0.858436 0.403435 2.341805152028776e-38
0.875250 0.852855 0.403664 2.341805152028776e-38
0.881235 0.847928 0.404210 2.341805152028776e-38
0.885789 0.841681 0.404128 2.341805152028776e-38
0.890300 0.835414 0.404037 2.341805152028776e-38
0.893375 0.827838 0.403306 2.341805152028776e-38
0.796456 0.963827 0.400830 2.341805152028776e-38
0.797159 0.951953 0.398421 2.341805152028776e-38
0.795238 0.937241 0.394787 2.341805152028776e-38
0.799989 0.930541 0.394501 2.341805152028776e-38
0.807189 0.926694 0.395430 2.341805152028776e-38
0.815633 0.924224 0.396962 2.341805152028776e-38
0.820907 0.918138 0.396951 2.341805152028776e-38
0.826078 0.912073 0.396949 2.341805152028776e-38
0.831845 0.906686 0.397244 2.341805152028776e-38
0.834987 0.898479 0.396299 2.341805152028776e-38
0.836755 0.888888 0.394727 2.341805152028776e-38
0.842375 0.883447 0.394988 2.341805152028776e-38
0.850574 0.880735 0.396482 2.341805152028776e-38
0.857412 0.876624 0.397362 2.341805152028776e-38
0.862223 0.870438 0.397308 2.341805152028776e-38
0.866992 0.864230 0.397242 2.341805152028776e-38
0.872395 0.858667 0.397475 2.341805152028776e-38
0.877081 0.852413 0.397388 2.341805152028776e-38
0.882352 0.846846 0.397623 2.341805152028776e-38
0.888277 0.841905 0.398157 2.341805152028776e-38
0.892787 0.835628 0.398063 2.341805152028776e-38
0.897254 0.829331 0.397957 2.341805152028776e-38
0.798426 0.963428 0.394547 2.341805152028776e-38
0.797854 0.950104 0.391576 2.341805152028776e-38
0.798986 0.939022 0.389498 2.341805152028776e-38
0.803745 0.932303 0.389214 2.341805152028776e-38
0.810332 0.927719 0.389823 2.341805152028776e-38
0.817527 0.923807 0.390725 2.341805152028776e-38
0.823409 0.918442 0.391020 2.341805152028776e-38
0.829217 0.913075 0.391318 2.341805152028776e-38
0.834991 0.907674 0.391605 2.341805152028776e-38
0.838131 0.899451 0.390671 2.341805152028776e-38
0.840547 0.890537 0.389421 2.341805152028776e-38
0.846178 0.885077 0.389675 2.341805152028776e-38
0.853042 0.881000 0.390546 2.341805152028776e-38
0.857884 0.874838 0.390499 2.341805152028776e-38
0.864696 0.870682 0.391352 2.341805152028776e-38
0.870140 0.865135 0.391588 2.341805152028776e-38
0.875549 0.859559 0.391813 2.341805152028776e-38
0.880896 0.853974 0.392038 2.341805152028776e-38
0.884799 0.847072 0.391657 2.341805152028776e-38
0.890728 0.842121 0.392179 2.341805152028776e-38
0.898022 0.838433 0.393301 2.341805152028776e-38
0.901804 0.831463 0.392889 2.341805152028776e-38
0.799119 0.961560 0.387676 2.341805152028776e-38
0.801576 0.951897 0.386233 2.341805152028776e-38
0.803324 0.941521 0.384480 2.341805152028776e-38
0.807470 0.934056 0.383900 2.341805152028776e-38
0.813442 0.928736 0.384200 2.341805152028776e-38
0.820013 0.924096 0.384787 2.341805152028776e-38
0.827147 0.920161 0.385678 2.341805152028776e-38
0.833608 0.915481 0.386266 2.341805152028776e-38
0.839397 0.910057 0.386546 2.341805152028776e-38
0.843196 0.902508 0.385921 2.341805152028776e-38
0.846278 0.894259 0.384986 2.341805152028776e-38
0.851250 0.888096 0.384943 2.341805152028776e-38
0.856803 0.882627 0.385201 2.341805152028776e-38
0.862990 0.877807 0.385749 2.341805152028776e-38
0.868479 0.872272 0.385988 2.341805152028776e-38
0.873932 0.866706 0.386216 2.341805152028776e-38
0.878669 0.860442 0.386135 2.341805152028776e-38
0.882623 0.853540 0.385764 2.341805152028776e-38
0.888590 0.848609 0.386284 2.341805152028776e-38
0.894530 0.843639 0.386795 2.341805152028776e-38
0.900443 0.838633 0.387296 2.341805152028776e-38
0.904925 0.832298 0.387186 2.341805152028776e-38
0.799749 0.959691 0.380830 2.341805152028776e-38
0.804651 0.952952 0.380572 2.341805152028776e-38
0.808257 0.944740 0.379719 2.341805152028776e-38
0.813045 0.937971 0.379438 2.341805152028776e-38
0.819041 0.932620 0.379731 2.341805152028776e-38
0.824991 0.927244 0.380018 2.341805152028776e-38
0.830214 0.921162 0.380018 2.341805152028776e-38
0.835394 0.915056 0.380007 2.341805152028776e-38
0.839882 0.908222 0.379692 2.341805152028776e-38
0.846278 0.903466 0.380247 2.341805152028776e-38
0.850017 0.895894 0.379616 2.341805152028776e-38
0.854308 0.889045 0.379285 2.341805152028776e-38
0.861200 0.884931 0.380125 2.341805152028776e-38
0.865391 0.878047 0.379778 2.341805152028776e-38
0.870881 0.872502 0.380009 2.341805152028776e-38
0.876336 0.866926 0.380231 2.341805152028776e-38
0.881052 0.860669 0.380154 2.341805152028776e-38
0.886373 0.855089 0.380378 2.341805152028776e-38
0.890967 0.848821 0.380296 2.341805152028776e-38
0.896214 0.843187 0.380499 2.341805152028776e-38
0.902126 0.838175 0.380988 2.341805152028776e-38
0.908011 0.833125 0.381468 2.341805152028776e-38
0.803400 0.961488 0.375438 2.341805152028776e-38
0.807072 0.953268 0.374607 2.341805152028776e-38
0.810673 0.945045 0.373764 2.341805152028776e-38
0.816087 0.938988 0.373772 2.341805152028776e-38
0.822723 0.934341 0.374345 2.341805152028776e-38
0.828019 0.928252 0.374344 2.341805152028776e-38
0.831963 0.920735 0.373764 2.341805152028776e-38
0.837785 0.915329 0.374038 2.341805152028776e-38
0.842922 0.909187 0.374013 2.341805152028776e-38
0.846049 0.900927 0.373111 2.341805152028776e-38
0.851073 0.894759 0.373069 2.341805152028776e-38
0.857996 0.890676 0.373902 2.341805152028776e-38
0.863565 0.885174 0.374146 2.341805152028776e-38
0.867755 0.878280 0.373801 2.341805152028776e-38
0.873246 0.872724 0.374025 2.341805152028776e-38
0.878702 0.867138 0.374238 2.341805152028776e-38
0.882706 0.860226 0.373879 2.341805152028776e-38
0.888024 0.854640 0.374095 2.341805152028776e-38
0.893307 0.849026 0.374302 2.341805152028776e-38
0.899253 0.844037 0.374789 2.341805152028776e-38
0.905874 0.839661 0.375557 2.341805152028776e-38
0.913163 0.835901 0.376615 2.341805152028776e-38
0.811332 0.968425 0.371998 2.341805152028776e-38
0.808834 0.952845 0.368352 2.341805152028776e-38
0.812424 0.944615 0.367519 2.341805152028776e-38
0.818464 0.939274 0.367806 2.341805152028776e-38
0.823834 0.933180 0.367800 2.341805152028776e-38
0.829096 0.927108 0.367804 2.341805152028776e-38
0.833671 0.920300 0.367513 2.341805152028776e-38
0.839490 0.914888 0.367779 2.341805152028776e-38
0.843317 0.907335 0.367183 2.341805152028776e-38
0.848397 0.901171 0.367144 2.341805152028776e-38
0.853394 0.895014 0.367108 2.341805152028776e-38
0.858991 0.889543 0.367354 2.341805152028776e-38
0.865223 0.884725 0.367875 2.341805152028776e-38
0.871429 0.879867 0.368387 2.341805152028776e-38
0.875573 0.872939 0.368034 2.341805152028776e-38
0.880335 0.866681 0.367959 2.341805152028776e-38
0.884319 0.859775 0.367607 2.341805152028776e-38
0.891017 0.855512 0.368388 2.341805152028776e-38
0.896306 0.849883 0.368587 2.341805152028776e-38
0.900860 0.843570 0.368491 2.341805152028776e-38
0.908185 0.839839 0.369529 2.341805152028776e-38
0.919699 0.839971 0.372295 2.341805152028776e-38
0.819876 0.976093 0.368746 2.341805152028776e-38
0.812422 0.954607 0.362934 2.341805152028776e-38
0.816643 0.947086 0.362390 2.341805152028776e-38
0.820803 0.939553 0.361834 2.341805152028776e-38
0.826784 0.934187 0.362111 2.341805152028776e-38
0.832051 0.928101 0.362111 2.341805152028776e-38
0.837274 0.921989 0.362101 2.341805152028776e-38
0.842454 0.915852 0.362081 2.341805152028776e-38
0.846936 0.908987 0.361771 2.341805152028776e-38
0.851364 0.902107 0.361450 2.341805152028776e-38
0.855678 0.895262 0.361139 2.341805152028776e-38
0.861276 0.889780 0.361378 2.341805152028776e-38
0.867512 0.884953 0.361888 2.341805152028776e-38
0.873721 0.880085 0.362388 2.341805152028776e-38
0.878543 0.873825 0.362317 2.341805152028776e-38
0.883968 0.868247 0.362531 2.341805152028776e-38
0.889336 0.862659 0.362743 2.341805152028776e-38
0.893976 0.856377 0.362665 2.341805152028776e-38
0.898573 0.850074 0.362576 2.341805152028776e-38
0.903127 0.843751 0.362478 2.341805152028776e-38
0.911857 0.841323 0.364063 2.341805152028776e-38
0.930474 0.847913 0.369603 2.341805152028776e-38
0.828417 0.983758 0.365396 2.341805152028776e-38
0.817851 0.958558 0.358311 2.341805152028776e-38
0.818948 0.947367 0.356405 2.341805152028776e-38
0.823738 0.940547 0.356129 2.341805152028776e-38
0.829062 0.934467 0.356132 2.341805152028776e-38
0.834971 0.929086 0.356404 2.341805152028776e-38
0.838904 0.921538 0.355842 2.341805152028776e-38
0.844079 0.915395 0.355818 2.341805152028776e-38
0.849211 0.909227 0.355785 2.341805152028776e-38
0.852951 0.901659 0.355199 2.341805152028776e-38
0.857924 0.895502 0.355165 2.341805152028776e-38
0.863524 0.890011 0.355397 2.341805152028776e-38
0.870436 0.885860 0.356170 2.341805152028776e-38
0.876653 0.880978 0.356659 2.341805152028776e-38
0.881477 0.874705 0.356587 2.341805152028776e-38
0.886198 0.868460 0.356526 2.341805152028776e-38
0.891567 0.862863 0.356731 2.341805152028776e-38
0.896902 0.857235 0.356927 2.341805152028776e-38
0.902201 0.851578 0.357113 2.341805152028776e-38
0.905356 0.843926 0.356460 2.341805152028776e-38
0.916192 0.843464 0.358855 2.341805152028776e-38
0.944807 0.859084 0.368179 2.341805152028776e-38
0.830740 0.984059 0.359260 2.341805152028776e-38
0.820755 0.959575 0.352559 2.341805152028776e-38
0.821845 0.948368 0.350683 2.341805152028776e-38
0.826627 0.941542 0.350412 2.341805152028776e-38
0.831301 0.934739 0.350146 2.341805152028776e-38
0.835923 0.927918 0.349871 2.341805152028776e-38
0.841791 0.922502 0.350125 2.341805152028776e-38
0.846970 0.916345 0.350099 2.341805152028776e-38
0.852764 0.910865 0.350333 2.341805152028776e-38
0.856485 0.903299 0.349762 2.341805152028776e-38
0.860800 0.896429 0.349455 2.341805152028776e-38
0.866405 0.890925 0.349680 2.341805152028776e-38
0.873327 0.886760 0.350438 2.341805152028776e-38
0.878192 0.880501 0.350373 2.341805152028776e-38
0.882986 0.874244 0.350307 2.341805152028776e-38
0.888391 0.868667 0.350515 2.341805152028776e-38
0.893069 0.862391 0.350442 2.341805152028776e-38
0.899097 0.857423 0.350903 2.341805152028776e-38
0.903697 0.851096 0.350810 2.341805152028776e-38
0.908251 0.844751 0.350709 2.341805152028776e-38
0.920500 0.845599 0.353614 2.341805152028776e-38
0.834270 0.985824 0.353645 2.341805152028776e-38
0.824880 0.962049 0.347321 2.341805152028776e-38
0.825339 0.950090 0.345210 2.341805152028776e-38
0.828830 0.941816 0.344418 2.341805152028776e-38
0.832861 0.934284 0.343890 2.341805152028776e-38
0.837477 0.927457 0.343615 2.341805152028776e-38
0.843342 0.922036 0.343862 2.341805152028776e-38
0.849172 0.916580 0.344098 2.341805152028776e-38
0.854295 0.910398 0.344064 2.341805152028776e-38
0.859324 0.904233 0.344035 2.341805152028776e-38
0.864978 0.898739 0.344263 2.341805152028776e-38
0.869925 0.892522 0.344215 2.341805152028776e-38
0.874152 0.885595 0.343891 2.341805152028776e-38
0.879007 0.879336 0.343823 2.341805152028776e-38
0.884454 0.873776 0.344030 2.341805152028776e-38
0.889856 0.868194 0.344231 2.341805152028776e-38
0.895224 0.862582 0.344423 2.341805152028776e-38
0.901254 0.857604 0.344873 2.341805152028776e-38
0.906556 0.851928 0.345046 2.341805152028776e-38
0.909677 0.844280 0.344418 2.341805152028776e-38
0.925491 0.848380 0.348607 2.341805152028776e-38
0.830895 0.979481 0.345151 2.341805152028776e-38
0.823940 0.958657 0.339971 2.341805152028776e-38
0.825630 0.948164 0.338412 2.341805152028776e-38
0.830357 0.941359 0.338158 2.341805152028776e-38
0.835666 0.935261 0.338156 2.341805152028776e-38
0.840933 0.929136 0.338145 2.341805152028776e-38
0.846156 0.922985 0.338123 2.341805152028776e-38
0.851335 0.916809 0.338092 2.341805152028776e-38
0.857757 0.912043 0.338584 2.341805152028776e-38
0.862795 0.905860 0.338554 2.341805152028776e-38
0.867119 0.898958 0.338252 2.341805152028776e-38
0.870717 0.891351 0.337679 2.341805152028776e-38
0.876290 0.885796 0.337881 2.341805152028776e-38
0.881131 0.879538 0.337816 2.341805152028776e-38
0.887257 0.874656 0.338281 2.341805152028776e-38
0.892664 0.869060 0.338476 2.341805152028776e-38
0.898037 0.863434 0.338662 2.341805152028776e-38
0.903375 0.857779 0.338838 2.341805152028776e-38
0.908677 0.852093 0.339005 2.341805152028776e-38
0.913186 0.845769 0.338918 2.341805152028776e-38
0.929034 0.849853 0.343032 2.341805152028776e-38
0.828078 0.973864 0.336988 2.341805152028776e-38
0.824838 0.957454 0.333426 2.341805152028776e-38
0.828401 0.949156 0.332662 2.341805152028776e-38
0.833763 0.943067 0.332668 2.341805152028776e-38
0.838437 0.936231 0.332408 2.341805152028776e-38
0.843058 0.929377 0.332138 2.341805152028776e-38
0.848281 0.923216 0.332114 2.341805152028776e-38
0.853460 0.917030 0.332081 2.341805152028776e-38
0.858536 0.910868 0.332055 2.341805152028776e-38
0.863565 0.904684 0.332022 2.341805152028776e-38
0.868550 0.898476 0.331979 2.341805152028776e-38
0.873492 0.892245 0.331927 2.341805152028776e-38
0.879071 0.886676 0.332122 2.341805152028776e-38
0.885262 0.881789 0.332578 2.341805152028776e-38
0.890714 0.876207 0.332775 2.341805152028776e-38
0.896131 0.870594 0.332964 2.341805152028776e-38
0.900816 0.864281 0.332886 2.341805152028776e-38
0.906159 0.858612 0.333056 2.341805152028776e-38
0.910041 0.851606 0.332706 2.341805152028776e-38
0.914536 0.845285 0.332621 2.341805152028776e-38
0.933259 0.851972 0.337691 2.341805152028776e-38
0.827707 0.971182 0.329894 2.341805152028776e-38
0.828855 0.959906 0.328147 2.341805152028776e-38
0.831129 0.950146 0.326899 2.341805152028776e-38
0.836496 0.944044 0.326902 2.341805152028776e-38
0.841172 0.937194 0.326644 2.341805152028776e-38
0.846448 0.931043 0.326628 2.341805152028776e-38
0.851024 0.924152 0.326351 2.341805152028776e-38
0.854868 0.916552 0.325818 2.341805152028776e-38
0.861264 0.911796 0.326295 2.341805152028776e-38
0.869642 0.909095 0.327519 2.341805152028776e-38
0.873307 0.901462 0.326971 2.341805152028776e-38
0.876910 0.893823 0.326413 2.341805152028776e-38
0.882499 0.888236 0.326602 2.341805152028776e-38
0.887992 0.882670 0.326802 2.341805152028776e-38
0.892069 0.875719 0.326488 2.341805152028776e-38
0.897483 0.870101 0.326670 2.341805152028776e-38
0.902163 0.863784 0.326590 2.341805152028776e-38
0.908206 0.858774 0.327006 2.341805152028776e-38
0.912063 0.851780 0.326668 2.341805152028776e-38
0.915136 0.844139 0.326075 2.341805152028776e-38
0.938172 0.854737 0.332570 2.341805152028776e-38
0.826655 0.967755 0.322585 2.341805152028776e-38
0.829037 0.957954 0.321358 2.341805152028776e-38
0.833183 0.950401 0.320875 2.341805152028776e-38
0.839193 0.945014 0.321121 2.341805152028776e-38
0.844521 0.938872 0.321112 2.341805152028776e-38
0.849153 0.931986 0.320848 2.341805152028776e-38
0.853074 0.924370 0.320326 2.341805152028776e-38
0.856893 0.916779 0.319807 2.341805152028776e-38
0.866623 0.915532 0.321508 2.341805152028776e-38
0.873689 0.911403 0.322213 2.341805152028776e-38
0.876688 0.903053 0.321426 2.341805152028776e-38
0.880976 0.896086 0.321123 2.341805152028776e-38
0.884507 0.888436 0.320570 2.341805152028776e-38
0.888625 0.881498 0.320267 2.341805152028776e-38
0.894075 0.875902 0.320452 2.341805152028776e-38
0.900186 0.870949 0.320876 2.341805152028776e-38
0.904870 0.864618 0.320795 2.341805152028776e-38
0.909510 0.858266 0.320705 2.341805152028776e-38
0.914047 0.851949 0.320626 2.341805152028776e-38
0.918542 0.845610 0.320538 2.341805152028776e-38
0.942342 0.856845 0.327159 2.341805152028776e-38
0.829335 0.968742 0.316763 2.341805152028776e-38
0.832968 0.960406 0.316044 2.341805152028776e-38
0.836480 0.952106 0.315328 2.341805152028776e-38
0.841211 0.945253 0.315084 2.341805152028776e-38
0.845239 0.937660 0.314589 2.341805152028776e-38
0.849860 0.930773 0.314327 2.341805152028776e-38
0.854428 0.923868 0.314054 2.341805152028776e-38
0.860206 0.918415 0.314275 2.341805152028776e-38
0.867953 0.915040 0.315214 2.341805152028776e-38
0.874347 0.910207 0.315661 2.341805152028776e-38
0.879362 0.903942 0.315614 2.341805152028776e-38
0.883652 0.896961 0.315314 2.341805152028776e-38
0.887162 0.889317 0.314775 2.341805152028776e-38
0.892660 0.883731 0.314963 2.341805152028776e-38
0.896737 0.876757 0.314655 2.341805152028776e-38
0.900762 0.869770 0.314338 2.341805152028776e-38
0.907543 0.865447 0.314986 2.341805152028776e-38
0.912164 0.859102 0.314902 2.341805152028776e-38
0.917415 0.853432 0.315066 2.341805152028776e-38
0.921917 0.847076 0.314978 2.341805152028776e-38
0.948638 0.860903 0.322447 2.341805152028776e-38
0.829448 0.966772 0.309981 2.341805152028776e-38
0.833041 0.958456 0.309278 2.341805152028776e-38
0.837176 0.950888 0.308809 2.341805152028776e-38
0.841897 0.944034 0.308568 2.341805152028776e-38
0.846564 0.937161 0.308317 2.341805152028776e-38
0.851179 0.930269 0.308056 2.341805152028776e-38
0.855720 0.923376 0.307792 2.341805152028776e-38
0.862159 0.918628 0.308244 2.341805152028776e-38
0.867903 0.913133 0.308450 2.341805152028776e-38
0.874960 0.909004 0.309123 2.341805152028776e-38
0.879966 0.902739 0.309073 2.341805152028776e-38
0.884926 0.896451 0.309016 2.341805152028776e-38
0.889096 0.889506 0.308729 2.341805152028776e-38
0.893214 0.882546 0.308433 2.341805152028776e-38
0.897975 0.876250 0.308367 2.341805152028776e-38
0.903392 0.870606 0.308531 2.341805152028776e-38
0.908774 0.864931 0.308686 2.341805152028776e-38
0.914077 0.859268 0.308847 2.341805152028776e-38
0.919329 0.853589 0.309005 2.341805152028776e-38
0.925262 0.848537 0.309394 2.341805152028776e-38
0.954914 0.864957 0.317675 2.341805152028776e-38
0.828880 0.964057 0.302989 2.341805152028776e-38
0.833706 0.957232 0.302767 2.341805152028776e-38
0.837185 0.948933 0.302072 2.341805152028776e-38
0.843186 0.943533 0.302297 2.341805152028776e-38
0.847847 0.936655 0.302048 2.341805152028776e-38
0.853770 0.931192 0.302256 2.341805152028776e-38
0.858293 0.924304 0.302000 2.341805152028776e-38
0.864073 0.918835 0.302208 2.341805152028776e-38
0.869819 0.913331 0.302407 2.341805152028776e-38
0.875530 0.907794 0.302598 2.341805152028776e-38
0.881206 0.902224 0.302780 2.341805152028776e-38
0.886140 0.895951 0.302727 2.341805152028776e-38
0.890992 0.889688 0.302677 2.341805152028776e-38
0.896492 0.884085 0.302853 2.341805152028776e-38
0.901262 0.877772 0.302786 2.341805152028776e-38
0.905988 0.871437 0.302710 2.341805152028776e-38
0.909960 0.864415 0.302393 2.341805152028776e-38
0.915952 0.859427 0.302788 2.341805152028776e-38
0.921918 0.854401 0.303175 2.341805152028776e-38
0.927857 0.849336 0.303553 2.341805152028776e-38
0.959006 0.867051 0.312138 2.341805152028776e-38
0.830789 0.964295 0.296942 2.341805152028776e-38
0.834966 0.956733 0.296495 2.341805152028776e-38
0.840372 0.950618 0.296495 2.341805152028776e-38
0.845734 0.944476 0.296486 2.341805152028776e-38
0.849744 0.936863 0.296012 2.341805152028776e-38
0.855009 0.930675 0.295985 2.341805152028776e-38
0.860168 0.924513 0.295966 2.341805152028776e-38
0.866617 0.919743 0.296396 2.341805152028776e-38
0.871697 0.913523 0.296360 2.341805152028776e-38
0.878762 0.909378 0.297002 2.341805152028776e-38
0.882406 0.901703 0.296492 2.341805152028776e-38
0.887999 0.896136 0.296673 2.341805152028776e-38
0.893540 0.890552 0.296851 2.341805152028776e-38
0.898352 0.884253 0.296791 2.341805152028776e-38
0.903121 0.877932 0.296723 2.341805152028776e-38
0.907847 0.871588 0.296646 2.341805152028776e-38
0.913208 0.865916 0.296798 2.341805152028776e-38
0.918501 0.860246 0.296953 2.341805152028776e-38
0.923759 0.854547 0.297100 2.341805152028776e-38
0.928982 0.848817 0.297239 2.341805152028776e-38
0.961624 0.867835 0.306109 2.341805152028776e-38
0.832653 0.964532 0.290891 2.341805152028776e-38
0.838111 0.958429 0.290897 2.341805152028776e-38
0.843526 0.952297 0.290895 2.341805152028776e-38
0.846944 0.943961 0.290215 2.341805152028776e-38
0.852258 0.937787 0.290195 2.341805152028776e-38
0.858169 0.932318 0.290394 2.341805152028776e-38
0.864664 0.927567 0.290821 2.341805152028776e-38
0.869796 0.921355 0.290793 2.341805152028776e-38
0.876231 0.916527 0.291204 2.341805152028776e-38
0.880606 0.909555 0.290935 2.341805152028776e-38
0.884926 0.902570 0.290658 2.341805152028776e-38
0.889820 0.896315 0.290614 2.341805152028776e-38
0.894671 0.890035 0.290561 2.341805152028776e-38
0.900174 0.884416 0.290725 2.341805152028776e-38
0.905642 0.878764 0.290880 2.341805152028776e-38
0.911075 0.873081 0.291027 2.341805152028776e-38
0.915717 0.866743 0.290956 2.341805152028776e-38
0.921015 0.861060 0.291106 2.341805152028776e-38
0.925562 0.854687 0.291022 2.341805152028776e-38
0.930066 0.848293 0.290931 2.341805152028776e-38
0.967825 0.871875 0.301193 2.341805152028776e-38
0.836394 0.966976 0.285488 2.341805152028776e-38
0.841223 0.960118 0.285275 2.341805152028776e-38
0.845351 0.952510 0.284834 2.341805152028776e-38
0.850070 0.945617 0.284603 2.341805152028776e-38
0.855393 0.939426 0.284582 2.341805152028776e-38
0.861294 0.933957 0.284780 2.341805152028776e-38
0.865803 0.927050 0.284540 2.341805152028776e-38
0.871600 0.921543 0.284729 2.341805152028776e-38
0.878038 0.916707 0.285130 2.341805152028776e-38
0.882412 0.909727 0.284864 2.341805152028776e-38
0.887394 0.903447 0.284816 2.341805152028776e-38
0.891604 0.896487 0.284551 2.341805152028776e-38
0.896454 0.890200 0.284497 2.341805152028776e-38
0.903351 0.885938 0.285094 2.341805152028776e-38
0.908128 0.879591 0.285024 2.341805152028776e-38
0.913559 0.873902 0.285168 2.341805152028776e-38
0.918192 0.867564 0.285100 2.341805152028776e-38
0.924208 0.862534 0.285465 2.341805152028776e-38
0.928045 0.855483 0.285161 2.341805152028776e-38
0.933274 0.849733 0.285289 2.341805152028776e-38
0.975455 0.877215 0.296658 2.341805152028776e-38
0.839465 0.968676 0.279840 2.341805152028776e-38
0.843013 0.960333 0.279202 2.341805152028776e-38
0.847138 0.952717 0.278769 2.341805152028776e-38
0.851856 0.945815 0.278541 2.341805152028776e-38
0.856520 0.938894 0.278304 2.341805152028776e-38
0.862399 0.933438 0.278501 2.341805152028776e-38
0.867569 0.927240 0.278478 2.341805152028776e-38
0.872695 0.921016 0.278447 2.341805152028776e-38
0.879131 0.916176 0.278836 2.341805152028776e-38
0.884179 0.909893 0.278789 2.341805152028776e-38
0.887771 0.902230 0.278315 2.341805152028776e-38
0.894039 0.897346 0.278698 2.341805152028776e-38
0.899587 0.891734 0.278858 2.341805152028776e-38
0.905101 0.886090 0.279011 2.341805152028776e-38
0.909877 0.879734 0.278940 2.341805152028776e-38
0.914583 0.873381 0.278869 2.341805152028776e-38
0.920632 0.868379 0.279232 2.341805152028776e-38
0.925225 0.862007 0.279155 2.341805152028776e-38
0.929775 0.855613 0.279071 2.341805152028776e-38
0.937173 0.851825 0.279841 2.341805152028776e-38
0.840579 0.968154 0.273542 2.341805152028776e-38
0.845410 0.961276 0.273334 2.341805152028776e-38
0.848887 0.952917 0.272700 2.341805152028776e-38
0.854258 0.946733 0.272684 2.341805152028776e-38
0.860233 0.941253 0.272871 2.341805152028776e-38
0.864791 0.934348 0.272646 2.341805152028776e-38
0.869965 0.928138 0.272621 2.341805152028776e-38
0.875769 0.922611 0.272799 2.341805152028776e-38
0.879506 0.914935 0.272338 2.341805152028776e-38
0.885227 0.909352 0.272500 2.341805152028776e-38
0.890165 0.903095 0.272459 2.341805152028776e-38
0.896439 0.898200 0.272832 2.341805152028776e-38
0.901993 0.892575 0.272987 2.341805152028776e-38
0.906812 0.886235 0.272924 2.341805152028776e-38
0.911588 0.879872 0.272852 2.341805152028776e-38
0.916274 0.873529 0.272786 2.341805152028776e-38
0.920902 0.867180 0.272717 2.341805152028776e-38
0.926919 0.862139 0.273062 2.341805152028776e-38
0.931468 0.855737 0.272977 2.341805152028776e-38
0.938146 0.851285 0.273518 2.341805152028776e-38
0.842294 0.968365 0.267453 2.341805152028776e-38
0.847124 0.961478 0.267248 2.341805152028776e-38
0.851901 0.954571 0.267034 2.341805152028776e-38
0.856625 0.947645 0.266813 2.341805152028776e-38
0.861925 0.941447 0.266794 2.341805152028776e-38
0.866482 0.934534 0.266572 2.341805152028776e-38
0.872326 0.929029 0.266751 2.341805152028776e-38
0.878810 0.924200 0.267127 2.341805152028776e-38
0.883910 0.917917 0.267086 2.341805152028776e-38
0.887583 0.910223 0.266631 2.341805152028776e-38
0.893899 0.905348 0.267001 2.341805152028776e-38
0.898805 0.899048 0.266953 2.341805152028776e-38
0.904363 0.893411 0.267102 2.341805152028776e-38
0.908486 0.886376 0.266833 2.341805152028776e-38
0.913258 0.880008 0.266762 2.341805152028776e-38
0.918637 0.874347 0.266906 2.341805152028776e-38
0.924695 0.869325 0.267248 2.341805152028776e-38
0.929291 0.862933 0.267171 2.341805152028776e-38
0.933845 0.856519 0.267086 2.341805152028776e-38
0.938354 0.850083 0.266994 2.341805152028776e-38
0.845259 0.970046 0.261758 2.341805152028776e-38
0.848151 0.960939 0.260958 2.341805152028776e-38
0.852269 0.953298 0.260548 2.341805152028776e-38
0.856324 0.945646 0.260129 2.341805152028776e-38
0.861592 0.939468 0.260113 2.341805152028776e-38
0.866801 0.933278 0.260094 2.341805152028776e-38
0.874651 0.929915 0.260867 2.341805152028776e-38
0.883845 0.927912 0.262035 2.341805152028776e-38
0.887607 0.920189 0.261592 2.341805152028776e-38
0.888533 0.909688 0.260348 2.341805152028776e-38
0.892780 0.902720 0.260106 2.341805152028776e-38
0.899748 0.898506 0.260659 2.341805152028776e-38
0.903909 0.891491 0.260401 2.341805152028776e-38
0.910824 0.887195 0.260940 2.341805152028776e-38
0.916287 0.881511 0.261075 2.341805152028776e-38
0.920256 0.874485 0.260811 2.341805152028776e-38
0.925601 0.868785 0.260943 2.341805152028776e-38
0.931629 0.863721 0.261268 2.341805152028776e-38
0.935464 0.856634 0.260982 2.341805152028776e-38
0.941418 0.851512 0.261294 2.341805152028776e-38
0.844964 0.968027 0.255067 2.341805152028776e-38
0.849787 0.961129 0.254868 2.341805152028776e-38
0.854556 0.954210 0.254661 2.341805152028776e-38
0.859271 0.947273 0.254446 2.341805152028776e-38
0.864532 0.941094 0.254433 2.341805152028776e-38
0.871753 0.937042 0.254998 2.341805152028776e-38
0.878958 0.932937 0.255557 2.341805152028776e-38
0.884115 0.926652 0.255522 2.341805152028776e-38
0.883096 0.913994 0.253717 2.341805152028776e-38
0.887386 0.907044 0.253484 2.341805152028776e-38
0.894375 0.902873 0.254029 2.341805152028776e-38
0.900652 0.897959 0.254371 2.341805152028776e-38
0.907601 0.893692 0.254902 2.341805152028776e-38
0.913829 0.888692 0.255230 2.341805152028776e-38
0.917162 0.880972 0.254776 2.341805152028776e-38
0.923259 0.875967 0.255106 2.341805152028776e-38
0.929329 0.870922 0.255429 2.341805152028776e-38
0.933932 0.864505 0.255352 2.341805152028776e-38
0.938493 0.858067 0.255267 2.341805152028776e-38
0.945894 0.854262 0.255970 2.341805152028776e-38
0.847209 0.968957 0.249160 2.341805152028776e-38
0.851384 0.961312 0.248774 2.341805152028776e-38
0.856808 0.955117 0.248760 2.341805152028776e-38
0.862828 0.949636 0.248934 2.341805152028776e-38
0.868767 0.944159 0.249110 2.341805152028776e-38
0.874003 0.937928 0.249089 2.341805152028776e-38
0.877847 0.930243 0.248679 2.341805152028776e-38
0.881630 0.922548 0.248261 2.341805152028776e-38
0.884661 0.914146 0.247645 2.341805152028776e-38
0.890313 0.908600 0.247800 2.341805152028776e-38
0.896623 0.903716 0.248139 2.341805152028776e-38
0.903602 0.899484 0.248663 2.341805152028776e-38
0.909163 0.893825 0.248797 2.341805152028776e-38
0.914689 0.888134 0.248923 2.341805152028776e-38
0.919414 0.881786 0.248866 2.341805152028776e-38
0.926230 0.877445 0.249379 2.341805152028776e-38
0.930160 0.870372 0.249117 2.341805152028776e-38
0.934759 0.863953 0.249040 2.341805152028776e-38
0.940039 0.858173 0.249147 2.341805152028776e-38
0.948885 0.855693 0.250221 2.341805152028776e-38
0.848770 0.969142 0.243055 2.341805152028776e-38
0.853594 0.962224 0.242862 2.341805152028776e-38
0.857709 0.954556 0.242476 2.341805152028776e-38
0.863709 0.949086 0.242647 2.341805152028776e-38
0.869645 0.943607 0.242817 2.341805152028776e-38
0.875546 0.938091 0.242981 2.341805152028776e-38
0.879388 0.930399 0.242579 2.341805152028776e-38
0.884526 0.924116 0.242542 2.341805152028776e-38
0.888913 0.917124 0.242317 2.341805152028776e-38
0.893896 0.910852 0.242280 2.341805152028776e-38
0.898835 0.904555 0.242237 2.341805152028776e-38
0.905125 0.899619 0.242559 2.341805152028776e-38
0.912089 0.895329 0.243062 2.341805152028776e-38
0.916907 0.888950 0.243000 2.341805152028776e-38
0.922341 0.883275 0.243131 2.341805152028776e-38
0.928454 0.878243 0.243443 2.341805152028776e-38
0.933104 0.871829 0.243373 2.341805152028776e-38
0.937711 0.865394 0.243296 2.341805152028776e-38
0.943725 0.860261 0.243586 2.341805152028776e-38
0.951843 0.857120 0.244449 2.341805152028776e-38
0.852237 0.971539 0.237487 2.341805152028776e-38
0.857075 0.964601 0.237298 2.341805152028776e-38
0.861201 0.956913 0.236921 2.341805152028776e-38
0.865212 0.949258 0.236546 2.341805152028776e-38
0.872483 0.945216 0.237074 2.341805152028776e-38
0.877722 0.938967 0.237051 2.341805152028776e-38
0.880890 0.930549 0.236476 2.341805152028776e-38
0.886709 0.924969 0.236620 2.341805152028776e-38
0.891767 0.918686 0.236585 2.341805152028776e-38
0.896758 0.912398 0.236548 2.341805152028776e-38
0.901706 0.906086 0.236504 2.341805152028776e-38
0.908006 0.901134 0.236817 2.341805152028776e-38
0.914280 0.896141 0.237123 2.341805152028776e-38
0.921204 0.891818 0.237612 2.341805152028776e-38
0.925945 0.885439 0.237557 2.341805152028776e-38
0.931357 0.879712 0.237676 2.341805152028776e-38
