VERSION .7
FIELDS x y z rgb
SIZE 4 4 4 4
TYPE F F F F
COUNT 1 1 1 1
WIDTH 957
HEIGHT 1
VIEWPOINT 0 0 0 1 0 0 0
POINTS 957
DATA ascii
1.179954 -0.137883 0.487188 2.341805152028776e-38
1.180136 -0.144127 0.487577 2.341805152028776e-38
1.180285 -0.150379 0.487965 2.341805152028776e-38
1.179483 -0.156520 0.487973 2.341805152028776e-38
1.176816 -0.162407 0.487220 2.341805152028776e-38
1.175036 -0.168406 0.486846 2.341805152028776e-38
1.175055 -0.174667 0.487230 2.341805152028776e-38
1.176870 -0.181219 0.488371 2.341805152028776e-38
1.174988 -0.187222 0.488004 2.341805152028776e-38
1.172154 -0.193070 0.487272 2.341805152028776e-38
3.165902 -0.057029 1.279076 2.341805152028776e-38
1.252085 -0.061283 0.506390 2.341805152028776e-38
1.211941 -0.065580 0.490285 2.341805152028776e-38
1.200480 -0.071167 0.485790 2.341805152028776e-38
1.194545 -0.076997 0.483543 2.341805152028776e-38
1.193208 -0.083093 0.483168 2.341805152028776e-38
1.191839 -0.089178 0.482793 2.341805152028776e-38
1.190438 -0.095254 0.482418 2.341805152028776e-38
1.193620 -0.101718 0.483930 2.341805152028776e-38
1.193996 -0.107969 0.484320 2.341805152028776e-38
1.191570 -0.113966 0.483585 2.341805152028776e-38
1.187268 -0.119758 0.482101 2.341805152028776e-38
1.185704 -0.125805 0.481741 2.341805152028776e-38
1.184109 -0.131843 0.481381 2.341805152028776e-38
1.183405 -0.137979 0.481394 2.341805152028776e-38
1.181747 -0.144003 0.481033 2.341805152028776e-38
1.183738 -0.150486 0.482169 2.341805152028776e-38
1.182936 -0.156632 0.482181 2.341805152028776e-38
1.179346 -0.162399 0.481068 2.341805152028776e-38
1.177563 -0.168399 0.480703 2.341805152028776e-38
1.177585 -0.174662 0.481086 2.341805152028776e-38
1.178489 -0.181075 0.481842 2.341805152028776e-38
1.177527 -0.187215 0.481848 2.341805152028776e-38
1.172873 -0.192753 0.480353 2.341805152028776e-38
3.162235 -0.056843 1.258671 2.341805152028776e-38
1.241687 -0.060647 0.494752 2.341805152028776e-38
1.210741 -0.065378 0.482552 2.341805152028776e-38
1.201113 -0.071056 0.478856 2.341805152028776e-38
1.196095 -0.076937 0.477009 2.341805152028776e-38
1.194756 -0.083028 0.476641 2.341805152028776e-38
1.194312 -0.089178 0.476642 2.341805152028776e-38
1.197541 -0.095624 0.478122 2.341805152028776e-38
1.198884 -0.101951 0.478862 2.341805152028776e-38
1.196491 -0.107963 0.478123 2.341805152028776e-38
1.193144 -0.113868 0.477013 2.341805152028776e-38
1.189768 -0.119743 0.475902 2.341805152028776e-38
1.186357 -0.125593 0.474804 2.341805152028776e-38
1.185685 -0.131725 0.474822 2.341805152028776e-38
1.184058 -0.137749 0.474469 2.341805152028776e-38
1.183322 -0.143877 0.474486 2.341805152028776e-38
1.182554 -0.150004 0.474503 2.341805152028776e-38
1.182676 -0.156254 0.474888 2.341805152028776e-38
1.182764 -0.162513 0.475273 2.341805152028776e-38
1.180979 -0.168519 0.474917 2.341805152028776e-38
1.178244 -0.174380 0.474190 2.341805152028776e-38
1.180990 -0.181066 0.475682 2.341805152028776e-38
1.180946 -0.187353 0.476062 2.341805152028776e-38
1.177200 -0.193048 0.474960 2.341805152028776e-38
1.231202 -0.060010 0.483235 2.341805152028776e-38
1.212283 -0.065325 0.475939 2.341805152028776e-38
1.202636 -0.070998 0.472293 2.341805152028776e-38
1.199467 -0.076994 0.471202 2.341805152028776e-38
1.198126 -0.083090 0.470841 2.341805152028776e-38
1.199538 -0.089383 0.471574 2.341805152028776e-38
1.199062 -0.095548 0.471578 2.341805152028776e-38
1.197626 -0.101635 0.471216 2.341805152028776e-38
1.196158 -0.107712 0.470854 2.341805152028776e-38
1.194661 -0.113779 0.470491 2.341805152028776e-38
1.191279 -0.119650 0.469397 2.341805152028776e-38
1.189721 -0.125689 0.469033 2.341805152028776e-38
1.188131 -0.131717 0.468668 2.341805152028776e-38
1.188362 -0.137951 0.469033 2.341805152028776e-38
1.183937 -0.143633 0.467573 2.341805152028776e-38
1.183170 -0.149752 0.467593 2.341805152028776e-38
1.185141 -0.156236 0.468708 2.341805152028776e-38
1.184308 -0.162370 0.468728 2.341805152028776e-38
1.182522 -0.168372 0.468381 2.341805152028776e-38
1.183469 -0.174773 0.469128 2.341805152028776e-38
1.186220 -0.181475 0.470605 2.341805152028776e-38
1.183417 -0.187342 0.469889 2.341805152028776e-38
1.178747 -0.192888 0.468442 2.341805152028776e-38
1.228086 -0.059733 0.474721 2.341805152028776e-38
1.212857 -0.065220 0.468964 2.341805152028776e-38
1.205055 -0.070994 0.466088 2.341805152028776e-38
1.199088 -0.076810 0.463933 2.341805152028776e-38
1.198676 -0.082956 0.463939 2.341805152028776e-38
1.201023 -0.089309 0.465025 2.341805152028776e-38
1.196827 -0.095174 0.463590 2.341805152028776e-38
1.196321 -0.101316 0.463596 2.341805152028776e-38
1.198570 -0.107708 0.464682 2.341805152028776e-38
1.198927 -0.113952 0.465047 2.341805152028776e-38
1.196468 -0.119927 0.464332 2.341805152028776e-38
1.193050 -0.125784 0.463255 2.341805152028776e-38
1.190532 -0.131716 0.462538 2.341805152028776e-38
1.187984 -0.137628 0.461820 2.341805152028776e-38
1.182628 -0.143185 0.460020 2.341805152028776e-38
1.182800 -0.149395 0.460381 2.341805152028776e-38
1.185713 -0.155979 0.461821 2.341805152028776e-38
1.184893 -0.162096 0.461820 2.341805152028776e-38
1.185877 -0.168483 0.462563 2.341805152028776e-38
1.184058 -0.174482 0.462225 2.341805152028776e-38
1.184975 -0.180894 0.462966 2.341805152028776e-38
1.184935 -0.187180 0.463346 2.341805152028776e-38
1.183020 -0.193174 0.463004 2.341805152028776e-38
1.270030 -0.055142 0.483305 2.341805152028776e-38
1.225849 -0.059500 0.466608 2.341805152028776e-38
1.211525 -0.065013 0.461285 2.341805152028776e-38
1.206509 -0.070932 0.459515 2.341805152028776e-38
1.204262 -0.076982 0.458812 2.341805152028776e-38
1.205714 -0.083271 0.459531 2.341805152028776e-38
1.203404 -0.089302 0.458829 2.341805152028776e-38
1.200133 -0.095241 0.457771 2.341805152028776e-38
1.198695 -0.101309 0.457424 2.341805152028776e-38
1.200018 -0.107618 0.458143 2.341805152028776e-38
1.201309 -0.113946 0.458862 2.341805152028776e-38
1.195125 -0.119549 0.456737 2.341805152028776e-38
1.188916 -0.125095 0.454612 2.341805152028776e-38
1.186397 -0.130993 0.453907 2.341805152028776e-38
1.184777 -0.136981 0.453558 2.341805152028776e-38
1.185912 -0.143294 0.454274 2.341805152028776e-38
1.185157 -0.149393 0.454278 2.341805152028776e-38
1.189005 -0.156100 0.456058 2.341805152028776e-38
1.190963 -0.162602 0.457126 2.341805152028776e-38
1.188258 -0.168476 0.456416 2.341805152028776e-38
1.188298 -0.174738 0.456770 2.341805152028776e-38
1.191073 -0.181435 0.458199 2.341805152028776e-38
1.191033 -0.187740 0.458579 2.341805152028776e-38
1.183578 -0.192853 0.456114 2.341805152028776e-38
1.262179 -0.054699 0.472983 2.341805152028776e-38
1.226339 -0.059412 0.459658 2.341805152028776e-38
1.216669 -0.065164 0.456149 2.341805152028776e-38
1.211647 -0.071096 0.454393 2.341805152028776e-38
1.209400 -0.077158 0.453689 2.341805152028776e-38
1.207124 -0.083201 0.452983 2.341805152028776e-38
1.207619 -0.089432 0.453329 2.341805152028776e-38
1.202477 -0.095231 0.451580 2.341805152028776e-38
1.201037 -0.101299 0.451241 2.341805152028776e-38
1.200499 -0.107441 0.451252 2.341805152028776e-38
1.201794 -0.113760 0.451964 2.341805152028776e-38
1.200259 -0.119819 0.451624 2.341805152028776e-38
1.195900 -0.125575 0.450232 2.341805152028776e-38
1.190583 -0.131191 0.448489 2.341805152028776e-38
1.192682 -0.137617 0.449550 2.341805152028776e-38
1.191027 -0.143624 0.449208 2.341805152028776e-38
1.192129 -0.149972 0.449917 2.341805152028776e-38
1.191340 -0.156096 0.449924 2.341805152028776e-38
1.193303 -0.162599 0.450982 2.341805152028776e-38
1.195231 -0.169130 0.452038 2.341805152028776e-38
1.197123 -0.175689 0.453093 2.341805152028776e-38
1.195276 -0.181714 0.452744 2.341805152028776e-38
1.194323 -0.187873 0.452744 2.341805152028776e-38
1.187793 -0.193130 0.450638 2.341805152028776e-38
1.256131 -0.054335 0.463446 2.341805152028776e-38
1.225849 -0.059277 0.452378 2.341805152028776e-38
1.217099 -0.065066 0.449264 2.341805152028776e-38
1.210195 -0.070878 0.446842 2.341805152028776e-38
1.208883 -0.076982 0.446495 2.341805152028776e-38
1.208476 -0.083140 0.446492 2.341805152028776e-38
1.207101 -0.089229 0.446144 2.341805152028776e-38
1.201955 -0.095012 0.444411 2.341805152028776e-38
1.203326 -0.101298 0.445099 2.341805152028776e-38
1.203730 -0.107520 0.445440 2.341805152028776e-38
1.205036 -0.113839 0.446126 2.341805152028776e-38
1.208174 -0.120365 0.447509 2.341805152028776e-38
1.201938 -0.125954 0.445448 2.341805152028776e-38
1.201273 -0.132102 0.445461 2.341805152028776e-38
1.198712 -0.138036 0.444783 2.341805152028776e-38
1.194258 -0.143726 0.443411 2.341805152028776e-38
1.191640 -0.149613 0.442731 2.341805152028776e-38
1.193644 -0.156088 0.443779 2.341805152028776e-38
1.195612 -0.162592 0.444827 2.341805152028776e-38
1.195688 -0.168862 0.445181 2.341805152028776e-38
1.195729 -0.175141 0.445534 2.341805152028776e-38
1.195738 -0.181429 0.445886 2.341805152028776e-38
1.193860 -0.187436 0.445544 2.341805152028776e-38
1.185469 -0.192380 0.442779 2.341805152028776e-38
1.247202 -0.053848 0.452959 2.341805152028776e-38
1.225316 -0.059141 0.445115 2.341805152028776e-38
1.218429 -0.065016 0.442728 2.341805152028776e-38
1.212452 -0.070879 0.440682 2.341805152028776e-38
1.212076 -0.077042 0.440682 2.341805152028776e-38
1.208855 -0.083013 0.439659 2.341805152028776e-38
1.207480 -0.089092 0.439317 2.341805152028776e-38
1.209822 -0.095458 0.440339 2.341805152028776e-38
1.210258 -0.101695 0.440679 2.341805152028776e-38
1.207852 -0.107691 0.439994 2.341805152028776e-38
1.207289 -0.113844 0.439991 2.341805152028776e-38
1.207630 -0.120090 0.440329 2.341805152028776e-38
1.202329 -0.125758 0.438618 2.341805152028776e-38
1.201674 -0.131890 0.438612 2.341805152028776e-38
1.199120 -0.137808 0.437923 2.341805152028776e-38
1.195595 -0.143601 0.436912 2.341805152028776e-38
1.193906 -0.149600 0.436587 2.341805152028776e-38
1.194051 -0.155833 0.436942 2.341805152028776e-38
1.195095 -0.162202 0.437638 2.341805152028776e-38
1.195174 -0.168458 0.437992 2.341805152028776e-38
1.195220 -0.174725 0.438344 2.341805152028776e-38
1.194304 -0.180859 0.438354 2.341805152028776e-38
1.191498 -0.186703 0.437680 2.341805152028776e-38
1.184952 -0.191925 0.435640 2.341805152028776e-38
1.241021 -0.053482 0.443584 2.341805152028776e-38
1.225683 -0.059049 0.438206 2.341805152028776e-38
1.221605 -0.065065 0.436863 2.341805152028776e-38
1.215617 -0.070933 0.434847 2.341805152028776e-38
1.212421 -0.076922 0.433840 2.341805152028776e-38
1.212015 -0.083076 0.433842 2.341805152028776e-38
1.213455 -0.089369 0.434516 2.341805152028776e-38
1.212046 -0.095458 0.434181 2.341805152028776e-38
1.211545 -0.101617 0.434182 2.341805152028776e-38
1.211012 -0.107776 0.434182 2.341805152028776e-38
1.208573 -0.113758 0.433509 2.341805152028776e-38
1.203294 -0.119441 0.431827 2.341805152028776e-38
1.199861 -0.125273 0.430816 2.341805152028776e-38
1.201080 -0.131588 0.431485 2.341805152028776e-38
1.200396 -0.137707 0.431481 2.341805152028776e-38
1.196875 -0.143489 0.430467 2.341805152028776e-38
1.194260 -0.149359 0.429788 2.341805152028776e-38
1.196287 -0.155817 0.430789 2.341805152028776e-38
1.197335 -0.162186 0.431477 2.341805152028776e-38
1.197416 -0.168444 0.431830 2.341805152028776e-38
1.197464 -0.174712 0.432182 2.341805152028776e-38
1.196547 -0.180848 0.432196 2.341805152028776e-38
1.195599 -0.186984 0.432209 2.341805152028776e-38
1.189041 -0.192218 0.430202 2.341805152028776e-38
1.281225 -0.048619 0.450533 2.341805152028776e-38
1.233835 -0.053073 0.433953 2.341805152028776e-38
1.224126 -0.058865 0.430641 2.341805152028776e-38
1.220042 -0.064861 0.429319 2.341805152028776e-38
1.215929 -0.070820 0.427997 2.341805152028776e-38
1.215553 -0.076979 0.428001 2.341805152028776e-38
1.215146 -0.083138 0.428005 2.341805152028776e-38
1.213767 -0.089228 0.427678 2.341805152028776e-38
1.214238 -0.095456 0.428013 2.341805152028776e-38
1.214677 -0.101694 0.428348 2.341805152028776e-38
1.213205 -0.107775 0.428019 2.341805152028776e-38
1.211702 -0.113845 0.427690 2.341805152028776e-38
1.207352 -0.119628 0.426365 2.341805152028776e-38
1.204851 -0.125567 0.425703 2.341805152028776e-38
1.204197 -0.131692 0.425703 2.341805152028776e-38
1.199762 -0.137388 0.424376 2.341805152028776e-38
1.197175 -0.143269 0.423711 2.341805152028776e-38
1.195494 -0.149248 0.423376 2.341805152028776e-38
1.198462 -0.155824 0.424698 2.341805152028776e-38
1.197654 -0.161933 0.424692 2.341805152028776e-38
1.198684 -0.168303 0.425347 2.341805152028776e-38
1.198742 -0.174559 0.425678 2.341805152028776e-38
1.197827 -0.180692 0.425697 2.341805152028776e-38
1.197811 -0.186970 0.426046 2.341805152028776e-38
1.192175 -0.192356 0.424404 2.341805152028776e-38
1.269302 -0.048088 0.439200 2.341805152028776e-38
1.235052 -0.053039 0.427430 2.341805152028776e-38
1.223443 -0.058734 0.423503 2.341805152028776e-38
1.221245 -0.064815 0.422843 2.341805152028776e-38
1.218074 -0.070822 0.421855 2.341805152028776e-38
1.218646 -0.077039 0.422173 2.341805152028776e-38
1.216359 -0.083071 0.421510 2.341805152028776e-38
1.215926 -0.089223 0.421501 2.341805152028776e-38
1.215457 -0.095377 0.421507 2.341805152028776e-38
1.215898 -0.101611 0.421839 2.341805152028776e-38
1.216307 -0.107854 0.422172 2.341805152028776e-38
1.215743 -0.114019 0.422177 2.341805152028776e-38
1.211385 -0.119811 0.420874 2.341805152028776e-38
1.207940 -0.125663 0.419898 2.341805152028776e-38
1.205407 -0.131589 0.419247 2.341805152028776e-38
1.201905 -0.137388 0.418269 2.341805152028776e-38
1.198375 -0.143158 0.417290 2.341805152028776e-38
1.197632 -0.149250 0.417290 2.341805152028776e-38
1.199669 -0.155706 0.418270 2.341805152028776e-38
1.196989 -0.161559 0.417614 2.341805152028776e-38
1.198023 -0.167916 0.418263 2.341805152028776e-38
1.199960 -0.174427 0.419238 2.341805152028776e-38
1.200926 -0.180826 0.419884 2.341805152028776e-38
1.199991 -0.186952 0.419875 2.341805152028776e-38
1.192481 -0.192038 0.417606 2.341805152028776e-38
1.257298 -0.047555 0.427997 2.341805152028776e-38
1.232451 -0.052841 0.419620 2.341805152028776e-38
1.223660 -0.058649 0.416716 2.341805152028776e-38
1.222405 -0.064772 0.416389 2.341805152028776e-38
1.222065 -0.070939 0.416383 2.341805152028776e-38
1.221693 -0.077107 0.416376 2.341805152028776e-38
1.216568 -0.082952 0.414758 2.341805152028776e-38
1.216137 -0.089094 0.414749 2.341805152028776e-38
1.215675 -0.095237 0.414740 2.341805152028776e-38
1.215182 -0.101378 0.414729 2.341805152028776e-38
1.215601 -0.107603 0.415039 2.341805152028776e-38
1.212218 -0.113483 0.414060 2.341805152028776e-38
1.210683 -0.119526 0.413744 2.341805152028776e-38
1.211002 -0.125756 0.414073 2.341805152028776e-38
1.210347 -0.131892 0.414079 2.341805152028776e-38
1.206838 -0.137706 0.413119 2.341805152028776e-38
1.200482 -0.143156 0.411192 2.341805152028776e-38
1.199739 -0.149249 0.411195 2.341805152028776e-38
1.199903 -0.155463 0.411519 2.341805152028776e-38
1.197220 -0.161307 0.410877 2.341805152028776e-38
1.200135 -0.167919 0.412164 2.341805152028776e-38
1.200202 -0.174160 0.412484 2.341805152028776e-38
1.203046 -0.180832 0.413769 2.341805152028776e-38
1.203046 -0.187105 0.414085 2.341805152028776e-38
1.198340 -0.192635 0.412790 2.341805152028776e-38
1.247109 -0.047093 0.417560 2.341805152028776e-38
1.228856 -0.052601 0.411529 2.341805152028776e-38
1.224787 -0.058608 0.410256 2.341805152028776e-38
1.224478 -0.064777 0.410252 2.341805152028776e-38
1.224138 -0.070945 0.410247 2.341805152028776e-38
1.219034 -0.076815 0.408656 2.341805152028776e-38
1.216741 -0.082830 0.408015 2.341805152028776e-38
1.215364 -0.088895 0.407691 2.341805152028776e-38
1.213958 -0.094950 0.407366 2.341805152028776e-38
1.211576 -0.100916 0.406723 2.341805152028776e-38
1.213889 -0.107280 0.407665 2.341805152028776e-38
1.212391 -0.113319 0.407337 2.341805152028776e-38
1.212751 -0.119534 0.407642 2.341805152028776e-38
1.212136 -0.125660 0.407628 2.341805152028776e-38
1.214319 -0.132092 0.408565 2.341805152028776e-38
1.210808 -0.137914 0.407613 2.341805152028776e-38
1.205383 -0.143486 0.406035 2.341805152028776e-38
1.205579 -0.149711 0.406359 2.341805152028776e-38
1.205742 -0.155946 0.406683 2.341805152028776e-38
1.206813 -0.162316 0.407322 2.341805152028776e-38
1.205033 -0.168312 0.407008 2.341805152028776e-38
1.205100 -0.174569 0.407327 2.341805152028776e-38
1.207010 -0.181116 0.408279 2.341805152028776e-38
1.206074 -0.187255 0.408278 2.341805152028776e-38
1.206042 -0.193543 0.408591 2.341805152028776e-38
1.284536 -0.041964 0.422865 2.341805152028776e-38
1.243492 -0.046881 0.409425 2.341805152028776e-38
1.229006 -0.052523 0.404735 2.341805152028776e-38
1.224932 -0.058520 0.403483 2.341805152028776e-38
1.224623 -0.064680 0.403480 2.341805152028776e-38
1.223335 -0.070785 0.403164 2.341805152028776e-38
1.218224 -0.076641 0.401598 2.341805152028776e-38
1.218772 -0.082836 0.401906 2.341805152028776e-38
1.218341 -0.088971 0.401901 2.341805152028776e-38
1.216933 -0.095031 0.401583 2.341805152028776e-38
1.215494 -0.101082 0.401264 2.341805152028776e-38
1.213079 -0.107039 0.400631 2.341805152028776e-38
1.213473 -0.113241 0.400935 2.341805152028776e-38
1.212890 -0.119360 0.400926 2.341805152028776e-38
1.215110 -0.125771 0.401852 2.341805152028776e-38
1.215408 -0.132004 0.402152 2.341805152028776e-38
1.214731 -0.138139 0.402139 2.341805152028776e-38
1.212136 -0.144049 0.401498 2.341805152028776e-38
1.211398 -0.150173 0.401482 2.341805152028776e-38
1.212505 -0.156547 0.402111 2.341805152028776e-38
1.212635 -0.162816 0.402432 2.341805152028776e-38
1.209910 -0.168701 0.401814 2.341805152028776e-38
1.209976 -0.174974 0.402132 2.341805152028776e-38
1.210011 -0.181256 0.402449 2.341805152028776e-38
1.210950 -0.187692 0.403076 2.341805152028776e-38
1.222174 -0.195800 0.407139 2.341805152028776e-38
1.272372 -0.041501 0.411816 2.341805152028776e-38
1.239824 -0.046668 0.401342 2.341805152028776e-38
1.227218 -0.052362 0.397334 2.341805152028776e-38
1.225990 -0.058477 0.397026 2.341805152028776e-38
1.227581 -0.064732 0.397640 2.341805152028776e-38
1.222492 -0.070622 0.396100 2.341805152028776e-38
1.223072 -0.076823 0.396406 2.341805152028776e-38
1.224570 -0.083097 0.397019 2.341805152028776e-38
1.225086 -0.089321 0.397324 2.341805152028776e-38
1.218931 -0.095036 0.395473 2.341805152028776e-38
1.216543 -0.101009 0.394853 2.341805152028776e-38
1.217917 -0.107296 0.395464 2.341805152028776e-38
1.217363 -0.113426 0.395457 2.341805152028776e-38
1.215832 -0.119462 0.395142 2.341805152028776e-38
1.214271 -0.125487 0.394826 2.341805152028776e-38
1.216464 -0.131913 0.395740 2.341805152028776e-38
1.213896 -0.137830 0.395113 2.341805152028776e-38
1.211300 -0.143727 0.394486 2.341805152028776e-38
1.210564 -0.149838 0.394472 2.341805152028776e-38
1.212628 -0.156313 0.395379 2.341805152028776e-38
1.211829 -0.162436 0.395362 2.341805152028776e-38
1.210053 -0.168430 0.395044 2.341805152028776e-38
1.212006 -0.174967 0.395977 2.341805152028776e-38
1.212041 -0.181250 0.396293 2.341805152028776e-38
1.217686 -0.188416 0.398453 2.341805152028776e-38
1.265821 -0.041230 0.402790 2.341805152028776e-38
1.244650 -0.046785 0.396113 2.341805152028776e-38
1.238691 -0.052778 0.394284 2.341805152028776e-38
1.231751 -0.058668 0.392151 2.341805152028776e-38
1.227639 -0.064641 0.390926 2.341805152028776e-38
1.229207 -0.070905 0.391518 2.341805152028776e-38
1.228841 -0.077067 0.391502 2.341805152028776e-38
1.227494 -0.083165 0.391182 2.341805152028776e-38
1.224212 -0.089116 0.390265 2.341805152028776e-38
1.222800 -0.095187 0.389960 2.341805152028776e-38
1.219458 -0.101091 0.389049 2.341805152028776e-38
1.218935 -0.107217 0.389046 2.341805152028776e-38
1.216485 -0.113166 0.388436 2.341805152028776e-38
1.214005 -0.119096 0.387826 2.341805152028776e-38
1.214340 -0.125299 0.388123 2.341805152028776e-38
1.213696 -0.131409 0.388116 2.341805152028776e-38
1.212075 -0.137411 0.387805 2.341805152028776e-38
1.214210 -0.143851 0.388704 2.341805152028776e-38
1.215364 -0.150202 0.389299 2.341805152028776e-38
1.213650 -0.156206 0.388983 2.341805152028776e-38
1.213796 -0.162452 0.389272 2.341805152028776e-38
1.212966 -0.168575 0.389256 2.341805152028776e-38
1.214935 -0.175105 0.390147 2.341805152028776e-38
1.212156 -0.180959 0.389523 2.341805152028776e-38
1.226290 -0.189426 0.394380 2.341805152028776e-38
1.268751 -0.041269 0.396822 2.341805152028776e-38
1.253271 -0.047045 0.392040 2.341805152028776e-38
1.241579 -0.052829 0.388450 2.341805152028776e-38
1.237489 -0.058861 0.387246 2.341805152028776e-38
1.233370 -0.064855 0.386041 2.341805152028776e-38
1.231128 -0.070919 0.385431 2.341805152028776e-38
1.229810 -0.077024 0.385118 2.341805152028776e-38
1.227509 -0.083053 0.384506 2.341805152028776e-38
1.225179 -0.089063 0.383892 2.341805152028776e-38
1.221869 -0.094978 0.382978 2.341805152028776e-38
1.220433 -0.101022 0.382659 2.341805152028776e-38
1.219918 -0.107138 0.382637 2.341805152028776e-38
1.216517 -0.112993 0.381733 2.341805152028776e-38
1.215935 -0.119100 0.381731 2.341805152028776e-38
1.216271 -0.125304 0.382026 2.341805152028776e-38
1.215628 -0.131415 0.382022 2.341805152028776e-38
1.216850 -0.137741 0.382613 2.341805152028776e-38
1.216144 -0.143860 0.382606 2.341805152028776e-38
1.219196 -0.150446 0.383791 2.341805152028776e-38
1.216533 -0.156339 0.383185 2.341805152028776e-38
1.213841 -0.162213 0.382577 2.341805152028776e-38
1.213012 -0.168328 0.382565 2.341805152028776e-38
1.213097 -0.174579 0.382848 2.341805152028776e-38
1.211262 -0.180556 0.382533 2.341805152028776e-38
1.236756 -0.190741 0.390863 2.341805152028776e-38
1.311020 -0.036030 0.402881 2.341805152028776e-38
1.263055 -0.041028 0.388192 2.341805152028776e-38
1.248507 -0.046803 0.383781 2.341805152028776e-38
1.240620 -0.052717 0.381423 2.341805152028776e-38
1.236525 -0.058736 0.380239 2.341805152028776e-38
1.234310 -0.064817 0.379641 2.341805152028776e-38
1.231111 -0.070823 0.378748 2.341805152028776e-38
1.230745 -0.076979 0.378735 2.341805152028776e-38
1.228442 -0.083005 0.378133 2.341805152028776e-38
1.226109 -0.089011 0.377530 2.341805152028776e-38
1.222795 -0.094923 0.376632 2.341805152028776e-38
1.221357 -0.100964 0.376319 2.341805152028776e-38
1.223700 -0.107327 0.377180 2.341805152028776e-38
1.222202 -0.113366 0.376864 2.341805152028776e-38
1.222578 -0.119579 0.377134 2.341805152028776e-38
1.218167 -0.125311 0.375934 2.341805152028776e-38
1.219429 -0.131624 0.376506 2.341805152028776e-38
1.221604 -0.138067 0.377384 2.341805152028776e-38
1.224693 -0.144651 0.378554 2.341805152028776e-38
1.222055 -0.150570 0.377962 2.341805152028776e-38
1.220336 -0.156592 0.377662 2.341805152028776e-38
1.219535 -0.162729 0.377654 2.341805152028776e-38
1.215863 -0.168472 0.376764 2.341805152028776e-38
1.214056 -0.174457 0.376459 2.341805152028776e-38
1.210329 -0.180149 0.375566 2.341805152028776e-38
1.248149 -0.192214 0.387580 2.341805152028776e-38
1.294813 -0.035537 0.390902 2.341805152028776e-38
1.254434 -0.040693 0.378762 2.341805152028776e-38
1.244650 -0.046595 0.375867 2.341805152028776e-38
1.240578 -0.052644 0.374704 2.341805152028776e-38
1.236478 -0.058655 0.373540 2.341805152028776e-38
1.233304 -0.064677 0.372663 2.341805152028776e-38
1.230102 -0.070670 0.371786 2.341805152028776e-38
1.231648 -0.076932 0.372352 2.341805152028776e-38
1.230297 -0.083019 0.372050 2.341805152028776e-38
1.226052 -0.088889 0.370880 2.341805152028776e-38
1.221779 -0.094719 0.369709 2.341805152028776e-38
1.224158 -0.101061 0.370558 2.341805152028776e-38
1.229365 -0.107682 0.372272 2.341805152028776e-38
1.228817 -0.113829 0.372252 2.341805152028776e-38
1.223475 -0.119510 0.370786 2.341805152028776e-38
1.221916 -0.125532 0.370474 2.341805152028776e-38
1.224136 -0.131955 0.371315 2.341805152028776e-38
1.226323 -0.138404 0.372154 2.341805152028776e-38
1.223721 -0.144320 0.371547 2.341805152028776e-38
1.223935 -0.150574 0.371826 2.341805152028776e-38
1.222215 -0.156597 0.371534 2.341805152028776e-38
1.219516 -0.162483 0.370952 2.341805152028776e-38
1.213943 -0.167956 0.369503 2.341805152028776e-38
1.214981 -0.174331 0.370072 2.341805152028776e-38
1.208409 -0.179599 0.368330 2.341805152028776e-38
1.281390 -0.035123 0.379968 2.341805152028776e-38
1.253413 -0.040607 0.371713 2.341805152028776e-38
1.245535 -0.046566 0.369424 2.341805152028776e-38
1.242416 -0.052652 0.368563 2.341805152028776e-38
1.237352 -0.058618 0.367134 2.341805152028776e-38
1.233217 -0.064586 0.365989 2.341805152028776e-38
1.234797 -0.070845 0.366548 2.341805152028776e-38
1.233474 -0.076944 0.366254 2.341805152028776e-38
1.234035 -0.083161 0.366526 2.341805152028776e-38
1.227871 -0.088903 0.364808 2.341805152028776e-38
1.222636 -0.094660 0.363374 2.341805152028776e-38
1.224064 -0.100921 0.363926 2.341805152028776e-38
1.226416 -0.107283 0.364762 2.341805152028776e-38
1.227779 -0.113584 0.365312 2.341805152028776e-38
1.228157 -0.119811 0.365576 2.341805152028776e-38
1.225641 -0.125752 0.364986 2.341805152028776e-38
1.226911 -0.132083 0.365531 2.341805152028776e-38
1.228148 -0.138431 0.366074 2.341805152028776e-38
1.224591 -0.144237 0.365195 2.341805152028776e-38
1.225766 -0.150596 0.365734 2.341805152028776e-38
1.224055 -0.156608 0.365420 2.341805152028776e-38
1.221361 -0.162487 0.364829 2.341805152028776e-38
1.220531 -0.168617 0.364826 2.341805152028776e-38
1.218720 -0.174611 0.364538 2.341805152028776e-38
1.208345 -0.179326 0.361692 2.341805152028776e-38
1.273629 -0.034873 0.370920 2.341805152028776e-38
1.253291 -0.040560 0.365037 2.341805152028776e-38
1.247321 -0.046583 0.363345 2.341805152028776e-38
1.241323 -0.052547 0.361650 2.341805152028776e-38
1.237216 -0.058545 0.360513 2.341805152028776e-38
1.234998 -0.064603 0.359932 2.341805152028776e-38
1.236585 -0.070861 0.360467 2.341805152028776e-38
1.237183 -0.077077 0.360720 2.341805152028776e-38
1.234875 -0.083108 0.360136 2.341805152028776e-38
1.232533 -0.089123 0.359566 2.341805152028776e-38
1.227291 -0.094896 0.358157 2.341805152028776e-38
1.224892 -0.100857 0.357585 2.341805152028776e-38
1.230118 -0.107467 0.359246 2.341805152028776e-38
1.232439 -0.113867 0.360067 2.341805152028776e-38
1.229950 -0.119830 0.359491 2.341805152028776e-38
1.229342 -0.125969 0.359471 2.341805152028776e-38
1.227749 -0.132003 0.359171 2.341805152028776e-38
1.227081 -0.138134 0.359148 2.341805152028776e-38
1.226383 -0.144263 0.359124 2.341805152028776e-38
1.226607 -0.150508 0.359376 2.341805152028776e-38
1.223943 -0.156396 0.358790 2.341805152028776e-38
1.226010 -0.162894 0.359597 2.341805152028776e-38
1.224238 -0.168895 0.359285 2.341805152028776e-38
1.221484 -0.174750 0.358698 2.341805152028776e-38
1.215843 -0.180177 0.357299 2.341805152028776e-38
1.322678 -0.029597 0.378182 2.341805152028776e-38
1.269656 -0.034727 0.363055 2.341805152028776e-38
1.254095 -0.040543 0.358645 2.341805152028776e-38
1.248117 -0.046563 0.356982 2.341805152028776e-38
1.243072 -0.052566 0.355591 2.341805152028776e-38
1.239919 -0.058610 0.354748 2.341805152028776e-38
1.241539 -0.064877 0.355276 2.341805152028776e-38
1.241208 -0.071051 0.355253 2.341805152028776e-38
1.240846 -0.077223 0.355228 2.341805152028776e-38
1.239495 -0.083330 0.354925 2.341805152028776e-38
1.236197 -0.089288 0.354071 2.341805152028776e-38
1.230953 -0.095066 0.352666 2.341805152028776e-38
1.231433 -0.101269 0.352906 2.341805152028776e-38
1.232837 -0.107565 0.353428 2.341805152028776e-38
1.235162 -0.113972 0.354237 2.341805152028776e-38
1.234584 -0.120127 0.354221 2.341805152028776e-38
1.233018 -0.126184 0.353929 2.341805152028776e-38
1.231422 -0.132229 0.353636 2.341805152028776e-38
1.229798 -0.138264 0.353341 2.341805152028776e-38
1.229099 -0.144400 0.353319 2.341805152028776e-38
1.225506 -0.150183 0.352471 2.341805152028776e-38
1.226656 -0.156545 0.352994 2.341805152028776e-38
1.226820 -0.162798 0.353241 2.341805152028776e-38
1.229810 -0.169452 0.354309 2.341805152028776e-38
1.228005 -0.175462 0.354002 2.341805152028776e-38
1.223317 -0.181038 0.352871 2.341805152028776e-38
1.315843 -0.029413 0.369296 2.341805152028776e-38
1.270448 -0.034712 0.356589 2.341805152028776e-38
1.255829 -0.040556 0.352525 2.341805152028776e-38
1.246957 -0.046471 0.350079 2.341805152028776e-38
1.242867 -0.052502 0.348983 2.341805152028776e-38
1.244520 -0.058766 0.349505 2.341805152028776e-38
1.245180 -0.064999 0.349755 2.341805152028776e-38
1.243886 -0.071129 0.349462 2.341805152028776e-38
1.241602 -0.077190 0.348897 2.341805152028776e-38
1.242172 -0.083423 0.349141 2.341805152028776e-38
1.238869 -0.089387 0.348302 2.341805152028776e-38
1.236498 -0.095395 0.347731 2.341805152028776e-38
1.236977 -0.101619 0.347968 2.341805152028776e-38
1.239345 -0.108017 0.348742 2.341805152028776e-38
1.239762 -0.114266 0.348974 2.341805152028776e-38
1.235356 -0.120056 0.347855 2.341805152028776e-38
1.232837 -0.126005 0.347281 2.341805152028776e-38
1.231241 -0.132042 0.346995 2.341805152028776e-38
1.231530 -0.138284 0.347246 2.341805152028776e-38
1.227962 -0.144085 0.346417 2.341805152028776e-38
1.224367 -0.149856 0.345586 2.341805152028776e-38
1.226476 -0.156327 0.346372 2.341805152028776e-38
1.228552 -0.162826 0.347156 2.341805152028776e-38
1.228685 -0.169088 0.347399 2.341805152028776e-38
1.227834 -0.175222 0.347369 2.341805152028776e-38
1.235525 -0.182621 0.349765 2.341805152028776e-38
1.307990 -0.029207 0.360221 2.341805152028776e-38
1.269281 -0.034644 0.349593 2.341805152028776e-38
1.254642 -0.040476 0.345600 2.341805152028776e-38
1.247685 -0.046450 0.343728 2.341805152028776e-38
1.245517 -0.052559 0.343181 2.341805152028776e-38
1.245246 -0.058740 0.343164 2.341805152028776e-38
1.245907 -0.064969 0.343410 2.341805152028776e-38
1.243650 -0.071043 0.342857 2.341805152028776e-38
1.243289 -0.077215 0.342834 2.341805152028776e-38
1.242897 -0.083386 0.342808 2.341805152028776e-38
1.241514 -0.089486 0.342515 2.341805152028776e-38
1.241063 -0.095649 0.342485 2.341805152028776e-38
1.240581 -0.101810 0.342453 2.341805152028776e-38
1.240070 -0.107970 0.342419 2.341805152028776e-38
1.238568 -0.114039 0.342117 2.341805152028776e-38
1.235118 -0.119910 0.341283 2.341805152028776e-38
1.232600 -0.125848 0.340712 2.341805152028776e-38
1.233889 -0.132176 0.341199 2.341805152028776e-38
1.233230 -0.138305 0.341153 2.341805152028776e-38
1.230618 -0.144217 0.340597 2.341805152028776e-38
1.227018 -0.149994 0.339783 2.341805152028776e-38
1.228174 -0.156350 0.340292 2.341805152028776e-38
1.228342 -0.162597 0.340534 2.341805152028776e-38
1.228478 -0.168852 0.340775 2.341805152028776e-38
1.233355 -0.175795 0.342338 2.341805152028776e-38
1.298145 -0.028959 0.350723 2.341805152028776e-38
1.263247 -0.034445 0.341323 2.341805152028776e-38
1.252451 -0.040364 0.338438 2.341805152028776e-38
1.246452 -0.046356 0.336856 2.341805152028776e-38
1.247176 -0.052576 0.337102 2.341805152028776e-38
1.246904 -0.058758 0.337085 2.341805152028776e-38
1.245638 -0.064889 0.336806 2.341805152028776e-38
1.243379 -0.070955 0.336264 2.341805152028776e-38
1.243018 -0.077119 0.336241 2.341805152028776e-38
1.241664 -0.083218 0.335955 2.341805152028776e-38
1.242206 -0.089445 0.336189 2.341805152028776e-38
1.241755 -0.095605 0.336161 2.341805152028776e-38
1.240312 -0.101685 0.335869 2.341805152028776e-38
1.238839 -0.107754 0.335576 2.341805152028776e-38
1.238299 -0.113899 0.335540 2.341805152028776e-38
1.234845 -0.119763 0.334722 2.341805152028776e-38
1.233286 -0.125792 0.334422 2.341805152028776e-38
1.235538 -0.132220 0.335161 2.341805152028776e-38
1.233919 -0.138244 0.334857 2.341805152028776e-38
1.231312 -0.144143 0.334290 2.341805152028776e-38
1.231552 -0.150372 0.334502 2.341805152028776e-38
1.234631 -0.156980 0.335506 2.341805152028776e-38
1.234797 -0.163253 0.335746 2.341805152028776e-38
1.228235 -0.168614 0.334162 2.341805152028776e-38
1.237901 -0.176230 0.337001 2.341805152028776e-38
1.286297 -0.028670 0.340849 2.341805152028776e-38
1.260053 -0.034328 0.333922 2.341805152028776e-38
1.253109 -0.040350 0.332113 2.341805152028776e-38
1.252898 -0.046555 0.332095 2.341805152028776e-38
1.249761 -0.052637 0.331306 2.341805152028776e-38
1.247560 -0.058735 0.330771 2.341805152028776e-38
1.246295 -0.064862 0.330489 2.341805152028776e-38
1.246931 -0.071089 0.330716 2.341805152028776e-38
1.242713 -0.077024 0.329661 2.341805152028776e-38
1.242323 -0.083179 0.329635 2.341805152028776e-38
1.242866 -0.089403 0.329865 2.341805152028776e-38
1.240488 -0.095412 0.329326 2.341805152028776e-38
1.239044 -0.101480 0.329040 2.341805152028776e-38
1.239497 -0.107703 0.329265 2.341805152028776e-38
1.237995 -0.113758 0.328975 2.341805152028776e-38
1.237425 -0.119894 0.328939 2.341805152028776e-38
1.235864 -0.125929 0.328645 2.341805152028776e-38
1.237157 -0.132262 0.329116 2.341805152028776e-38
1.237458 -0.138503 0.329330 2.341805152028776e-38
1.238688 -0.144864 0.329796 2.341805152028776e-38
1.238927 -0.151124 0.330005 2.341805152028776e-38
1.239134 -0.157390 0.330211 2.341805152028776e-38
1.235476 -0.163157 0.329393 2.341805152028776e-38
1.230830 -0.168767 0.328328 2.341805152028776e-38
1.250081 -0.177751 0.333672 2.341805152028776e-38
1.279224 -0.028488 0.332354 2.341805152028776e-38
1.262622 -0.034369 0.328068 2.341805152028776e-38
1.258571 -0.040491 0.327047 2.341805152028776e-38
1.253524 -0.046539 0.325772 2.341805152028776e-38
1.247482 -0.052497 0.324243 2.341805152028776e-38
1.248179 -0.058714 0.324472 2.341805152028776e-38
1.246914 -0.064839 0.324195 2.341805152028776e-38
1.246585 -0.071008 0.324167 2.341805152028776e-38
1.244294 -0.077056 0.323634 2.341805152028776e-38
1.244872 -0.083276 0.323852 2.341805152028776e-38
1.244454 -0.089435 0.323817 2.341805152028776e-38
1.243041 -0.095518 0.323527 2.341805152028776e-38
1.239669 -0.101431 0.322735 2.341805152028776e-38
1.240124 -0.107652 0.322955 2.341805152028776e-38
1.241512 -0.113969 0.323425 2.341805152028776e-38
1.239978 -0.120023 0.323139 2.341805152028776e-38
1.239377 -0.126164 0.323103 2.341805152028776e-38
1.239710 -0.132405 0.323315 2.341805152028776e-38
1.238087 -0.138438 0.323023 2.341805152028776e-38
1.237397 -0.144572 0.322980 2.341805152028776e-38
1.237638 -0.150820 0.323185 2.341805152028776e-38
1.237848 -0.157074 0.323389 2.341805152028776e-38
1.236108 -0.163082 0.323088 2.341805152028776e-38
1.230502 -0.168552 0.321782 2.341805152028776e-38
1.259377 -0.178872 0.329501 2.341805152028776e-38
1.326480 -0.022955 0.337763 2.341805152028776e-38
1.277911 -0.028434 0.325417 2.341805152028776e-38
1.264196 -0.034383 0.321950 2.341805152028776e-38
1.261108 -0.040539 0.321195 2.341805152028776e-38
1.253150 -0.046486 0.319204 2.341805152028776e-38
1.249037 -0.052518 0.318197 2.341805152028776e-38
1.249735 -0.058738 0.318421 2.341805152028776e-38
1.250404 -0.064966 0.318643 2.341805152028776e-38
1.248139 -0.071037 0.318122 2.341805152028776e-38
1.247781 -0.077207 0.318092 2.341805152028776e-38
1.247392 -0.083375 0.318060 2.341805152028776e-38
1.247940 -0.089610 0.318271 2.341805152028776e-38
1.243626 -0.095482 0.317248 2.341805152028776e-38
1.241217 -0.101472 0.316715 2.341805152028776e-38
1.243608 -0.107859 0.317412 2.341805152028776e-38
1.243071 -0.114006 0.317367 2.341805152028776e-38
1.245397 -0.120431 0.318062 2.341805152028776e-38
1.242866 -0.126397 0.317534 2.341805152028776e-38
1.243199 -0.132650 0.317743 2.341805152028776e-38
1.240611 -0.138587 0.317211 2.341805152028776e-38
1.239920 -0.144728 0.317169 2.341805152028776e-38
1.237275 -0.150631 0.316633 2.341805152028776e-38
1.237487 -0.156879 0.316833 2.341805152028776e-38
1.236707 -0.163006 0.316785 2.341805152028776e-38
1.229176 -0.168210 0.315012 2.341805152028776e-38
1.311608 -0.022679 0.327223 2.341805152028776e-38
1.276561 -0.028381 0.318500 2.341805152028776e-38
1.265739 -0.034397 0.315825 2.341805152028776e-38
1.260709 -0.040493 0.314600 2.341805152028776e-38
1.256619 -0.046576 0.313615 2.341805152028776e-38
1.255409 -0.052743 0.313353 2.341805152028776e-38
1.254170 -0.058898 0.313089 2.341805152028776e-38
1.254839 -0.065143 0.313307 2.341805152028776e-38
1.251602 -0.071176 0.312554 2.341805152028776e-38
1.252211 -0.077417 0.312766 2.341805152028776e-38
1.249885 -0.083473 0.312251 2.341805152028776e-38
1.246563 -0.089438 0.311491 2.341805152028776e-38
1.240310 -0.095150 0.310003 2.341805152028776e-38
1.239834 -0.101275 0.309964 2.341805152028776e-38
1.243196 -0.107734 0.310890 2.341805152028776e-38
1.246525 -0.114229 0.311813 2.341805152028776e-38
1.246923 -0.120478 0.312008 2.341805152028776e-38
1.245359 -0.126539 0.311718 2.341805152028776e-38
1.243767 -0.132587 0.311425 2.341805152028776e-38
1.245036 -0.138950 0.311865 2.341805152028776e-38
1.241452 -0.144770 0.311101 2.341805152028776e-38
1.239768 -0.150792 0.310817 2.341805152028776e-38
1.238055 -0.156803 0.310531 2.341805152028776e-38
1.236313 -0.162801 0.310243 2.341805152028776e-38
1.230697 -0.168261 0.308988 2.341805152028776e-38
1.297636 -0.022419 0.317071 2.341805152028776e-38
1.273232 -0.028284 0.311128 2.341805152028776e-38
1.265311 -0.034358 0.309218 2.341805152028776e-38
1.262217 -0.040509 0.308491 2.341805152028776e-38
1.260064 -0.046667 0.308000 2.341805152028776e-38
1.256912 -0.052763 0.307269 2.341805152028776e-38
1.255671 -0.058921 0.307010 2.341805152028776e-38
1.254400 -0.065068 0.306748 2.341805152028776e-38
1.253101 -0.071204 0.306485 2.341805152028776e-38
1.252741 -0.077388 0.306456 2.341805152028776e-38
1.255259 -0.083764 0.307136 2.341805152028776e-38
1.252901 -0.089820 0.306628 2.341805152028776e-38
1.246639 -0.095558 0.305169 2.341805152028776e-38
1.244225 -0.101552 0.304657 2.341805152028776e-38
1.245654 -0.107860 0.305090 2.341805152028776e-38
1.248020 -0.114273 0.305758 2.341805152028776e-38
1.245518 -0.120246 0.305239 2.341805152028776e-38
1.245887 -0.126490 0.305428 2.341805152028776e-38
1.246226 -0.132742 0.305614 2.341805152028776e-38
1.242672 -0.138569 0.304851 2.341805152028776e-38
1.240056 -0.144476 0.304322 2.341805152028776e-38
1.238375 -0.150483 0.304037 2.341805152028776e-38
1.238590 -0.156725 0.304232 2.341805152028776e-38
1.238774 -0.162974 0.304424 2.341805152028776e-38
1.239890 -0.169361 0.304850 2.341805152028776e-38
1.291376 -0.022294 0.308924 2.341805152028776e-38
1.270834 -0.028209 0.304030 2.341805152028776e-38
1.264849 -0.034318 0.302622 2.341805152028776e-38
1.261752 -0.040462 0.301910 2.341805152028776e-38
1.259597 -0.046613 0.301428 2.341805152028776e-38
1.258384 -0.052784 0.301177 2.341805152028776e-38
1.258114 -0.058989 0.301156 2.341805152028776e-38
1.255871 -0.065093 0.300667 2.341805152028776e-38
1.253599 -0.071176 0.300176 2.341805152028776e-38
1.256151 -0.077537 0.300845 2.341805152028776e-38
1.263525 -0.084250 0.302674 2.341805152028776e-38
1.263102 -0.090480 0.302641 2.341805152028776e-38
1.252951 -0.095966 0.300281 2.341805152028776e-38
1.248594 -0.101829 0.299314 2.341805152028776e-38
1.250024 -0.108153 0.299739 2.341805152028776e-38
1.251423 -0.114495 0.300161 2.341805152028776e-38
1.249885 -0.120572 0.299884 2.341805152028776e-38
1.245416 -0.126343 0.298908 2.341805152028776e-38
1.243822 -0.132381 0.298627 2.341805152028776e-38
1.240266 -0.138191 0.297879 2.341805152028776e-38
1.238616 -0.144194 0.297593 2.341805152028776e-38
1.240800 -0.150654 0.298233 2.341805152028776e-38
1.241021 -0.156894 0.298407 2.341805152028776e-38
1.244101 -0.163526 0.299284 2.341805152028776e-38
1.256782 -0.171513 0.302486 2.341805152028776e-38
2.256520 -0.353509 0.544292 2.341805152028776e-38
1.287015 -0.022201 0.301301 2.341805152028776e-38
1.268397 -0.028133 0.296962 2.341805152028776e-38
1.265326 -0.034305 0.296266 2.341805152028776e-38
1.265145 -0.040540 0.296252 2.341805152028776e-38
1.263960 -0.046738 0.296008 2.341805152028776e-38
1.261773 -0.052885 0.295534 2.341805152028776e-38
1.260530 -0.059057 0.295285 2.341805152028776e-38
1.258284 -0.065168 0.294806 2.341805152028776e-38
1.255037 -0.071203 0.294098 2.341805152028776e-38
1.259537 -0.077687 0.295209 2.341805152028776e-38
1.261089 -0.084022 0.295634 2.341805152028776e-38
1.257753 -0.090028 0.294919 2.341805152028776e-38
1.256331 -0.096151 0.294656 2.341805152028776e-38
1.252939 -0.102104 0.293936 2.341805152028776e-38
1.251460 -0.108194 0.293669 2.341805152028776e-38
1.249952 -0.114272 0.293400 2.341805152028776e-38
1.246476 -0.120150 0.292674 2.341805152028776e-38
1.245879 -0.126292 0.292628 2.341805152028776e-38
1.246221 -0.132534 0.292807 2.341805152028776e-38
1.245565 -0.138674 0.292757 2.341805152028776e-38
1.244879 -0.144811 0.292704 2.341805152028776e-38
1.244163 -0.150945 0.292649 2.341805152028776e-38
1.242451 -0.156953 0.292364 2.341805152028776e-38
1.248435 -0.163963 0.293895 2.341805152028776e-38
2.286087 -0.357825 0.539577 2.341805152028776e-38
1.282611 -0.022109 0.293728 2.341805152028776e-38
1.270794 -0.028165 0.291040 2.341805152028776e-38
1.268694 -0.034370 0.290582 2.341805152028776e-38
1.265590 -0.040524 0.289899 2.341805152028776e-38
1.263430 -0.046683 0.289437 2.341805152028776e-38
1.260267 -0.052782 0.288749 2.341805152028776e-38
1.260971 -0.059033 0.288952 2.341805152028776e-38
1.260670 -0.065242 0.288929 2.341805152028776e-38
1.260339 -0.071449 0.288904 2.341805152028776e-38
1.258032 -0.077535 0.288431 2.341805152028776e-38
1.258614 -0.083794 0.288625 2.341805152028776e-38
1.259166 -0.090061 0.288816 2.341805152028776e-38
1.256771 -0.096112 0.288336 2.341805152028776e-38
1.256291 -0.102300 0.288300 2.341805152028776e-38
1.253838 -0.108318 0.287816 2.341805152028776e-38
1.251357 -0.114314 0.287329 2.341805152028776e-38
1.249819 -0.120381 0.287064 2.341805152028776e-38
1.250191 -0.126633 0.287241 2.341805152028776e-38
1.249563 -0.132789 0.287194 2.341805152028776e-38
1.247936 -0.138833 0.286922 2.341805152028776e-38
1.246281 -0.144865 0.286647 2.341805152028776e-38
1.243629 -0.150766 0.286148 2.341805152028776e-38
1.242885 -0.156889 0.286092 2.341805152028776e-38
1.256610 -0.164911 0.289372 2.341805152028776e-38
2.307956 -0.360934 0.532807 2.341805152028776e-38
1.284018 -0.022116 0.287514 2.341805152028776e-38
1.275115 -0.028240 0.285539 2.341805152028776e-38
1.271061 -0.034409 0.284654 2.341805152028776e-38
1.267954 -0.040569 0.283985 2.341805152028776e-38
1.264817 -0.046700 0.283315 2.341805152028776e-38
1.260675 -0.052760 0.282423 2.341805152028776e-38
1.260405 -0.058963 0.282403 2.341805152028776e-38
1.262054 -0.065266 0.282818 2.341805152028776e-38
1.260748 -0.071420 0.282575 2.341805152028776e-38
1.260388 -0.077623 0.282548 2.341805152028776e-38
1.260971 -0.083889 0.282738 2.341805152028776e-38
1.262496 -0.090233 0.283144 2.341805152028776e-38
1.262044 -0.096444 0.283110 2.341805152028776e-38
1.259617 -0.102495 0.282638 2.341805152028776e-38
1.259106 -0.108693 0.282601 2.341805152028776e-38
1.257593 -0.114799 0.282343 2.341805152028776e-38
1.255079 -0.120799 0.281864 2.341805152028776e-38
1.251567 -0.126679 0.281166 2.341805152028776e-38
1.250939 -0.132837 0.281119 2.341805152028776e-38
1.251251 -0.139099 0.281289 2.341805152028776e-38
1.250562 -0.145255 0.281238 2.341805152028776e-38
1.246938 -0.151055 0.280531 2.341805152028776e-38
1.246192 -0.157190 0.280476 2.341805152028776e-38
1.267673 -0.166240 0.285430 2.341805152028776e-38
2.324027 -0.363136 0.524530 2.341805152028776e-38
1.281488 -0.022057 0.280440 2.341805152028776e-38
1.273553 -0.028185 0.278721 2.341805152028776e-38
1.269495 -0.034342 0.277855 2.341805152028776e-38
1.270290 -0.040615 0.278056 2.341805152028776e-38
1.265197 -0.046681 0.276972 2.341805152028776e-38
1.263004 -0.052820 0.276527 2.341805152028776e-38
1.262733 -0.059030 0.276508 2.341805152028776e-38
1.263408 -0.065289 0.276700 2.341805152028776e-38
1.265028 -0.071611 0.277103 2.341805152028776e-38
1.263691 -0.077771 0.276863 2.341805152028776e-38
1.264274 -0.084049 0.277049 2.341805152028776e-38
1.263852 -0.090264 0.277018 2.341805152028776e-38
1.261452 -0.096329 0.276559 2.341805152028776e-38
1.261944 -0.102611 0.276738 2.341805152028776e-38
1.260459 -0.108731 0.276487 2.341805152028776e-38
1.259918 -0.114928 0.276448 2.341805152028776e-38
1.256429 -0.120842 0.275767 2.341805152028776e-38
1.253885 -0.126822 0.275297 2.341805152028776e-38
1.255199 -0.133193 0.275678 2.341805152028776e-38
1.255511 -0.139472 0.275844 2.341805152028776e-38
1.250939 -0.145193 0.274941 2.341805152028776e-38
1.250221 -0.151343 0.274889 2.341805152028776e-38
1.250443 -0.157612 0.275048 2.341805152028776e-38
1.282602 -0.168076 0.282240 2.341805152028776e-38
2.231668 -0.337205 0.491988 2.341805152028776e-38
2.357438 -0.368072 0.519975 2.341805152028776e-38
1.277942 -0.021981 0.273187 2.341805152028776e-38
1.271954 -0.028130 0.271924 2.341805152028776e-38
1.271803 -0.034380 0.271914 2.341805152028776e-38
1.271621 -0.040629 0.271901 2.341805152028776e-38
1.268477 -0.046769 0.271259 2.341805152028776e-38
1.266282 -0.052920 0.270824 2.341805152028776e-38
1.266011 -0.059141 0.270805 2.341805152028776e-38
1.264733 -0.065311 0.270575 2.341805152028776e-38
1.264401 -0.071525 0.270552 2.341805152028776e-38
1.264040 -0.077737 0.270526 2.341805152028776e-38
1.263649 -0.083948 0.270499 2.341805152028776e-38
1.263227 -0.090156 0.270469 2.341805152028776e-38
1.265701 -0.096586 0.271064 2.341805152028776e-38
1.264244 -0.102725 0.270821 2.341805152028776e-38
1.262757 -0.108852 0.270576 2.341805152028776e-38
1.261241 -0.114968 0.270329 2.341805152028776e-38
1.259696 -0.121070 0.270080 2.341805152028776e-38
1.258122 -0.127161 0.269829 2.341805152028776e-38
1.256519 -0.133239 0.269576 2.341805152028776e-38
1.255859 -0.139412 0.269529 2.341805152028776e-38
1.257112 -0.145807 0.269898 2.341805152028776e-38
1.255421 -0.151865 0.269639 2.341805152028776e-38
1.251759 -0.157666 0.268960 2.341805152028776e-38
1.304318 -0.170800 0.280370 2.341805152028776e-38
2.285280 -0.345061 0.492136 2.341805152028776e-38
2.382154 -0.371667 0.513255 2.341805152028776e-38
1.281207 -0.022022 0.267405 2.341805152028776e-38
1.277170 -0.028226 0.266580 2.341805152028776e-38
1.274083 -0.034418 0.265957 2.341805152028776e-38
1.274879 -0.040705 0.266148 2.341805152028776e-38
1.269776 -0.046785 0.265113 2.341805152028776e-38
1.269534 -0.053019 0.265096 2.341805152028776e-38
1.270240 -0.059298 0.265281 2.341805152028776e-38
1.268960 -0.065485 0.265057 2.341805152028776e-38
1.268628 -0.071715 0.265034 2.341805152028776e-38
1.264358 -0.077704 0.264192 2.341805152028776e-38
1.264943 -0.083976 0.264369 2.341805152028776e-38
1.266475 -0.090326 0.264749 2.341805152028776e-38
1.265046 -0.096470 0.264513 2.341805152028776e-38
1.263589 -0.102601 0.264276 2.341805152028776e-38
1.263077 -0.108805 0.264241 2.341805152028776e-38
1.263510 -0.115095 0.264408 2.341805152028776e-38
1.263912 -0.121392 0.264572 2.341805152028776e-38
1.262336 -0.127499 0.264327 2.341805152028776e-38
1.262677 -0.133799 0.264487 2.341805152028776e-38
1.262987 -0.140106 0.264646 2.341805152028776e-38
1.259377 -0.145969 0.263986 2.341805152028776e-38
1.258655 -0.152152 0.263937 2.341805152028776e-38
1.255961 -0.158086 0.263477 2.341805152028776e-38
2.313774 -0.349121 0.486481 2.341805152028776e-38
2.411697 -0.376016 0.507323 2.341805152028776e-38
1.281506 -0.022012 0.261000 2.341805152028776e-38
1.278446 -0.028235 0.260393 2.341805152028776e-38
1.276335 -0.034456 0.259984 2.341805152028776e-38
1.275173 -0.040687 0.259772 2.341805152028776e-38
1.273982 -0.046908 0.259558 2.341805152028776e-38
1.272761 -0.053118 0.259343 2.341805152028776e-38
1.272488 -0.059363 0.259324 2.341805152028776e-38
1.271207 -0.065557 0.259105 2.341805152028776e-38
1.269897 -0.071739 0.258883 2.341805152028776e-38
1.268556 -0.077909 0.258659 2.341805152028776e-38
1.267186 -0.084069 0.258433 2.341805152028776e-38
1.266764 -0.090286 0.258405 2.341805152028776e-38
1.263381 -0.096278 0.257776 2.341805152028776e-38
1.264853 -0.102635 0.258143 2.341805152028776e-38
1.265318 -0.108925 0.258308 2.341805152028776e-38
1.265751 -0.115222 0.258471 2.341805152028776e-38
1.266154 -0.121526 0.258631 2.341805152028776e-38
1.265550 -0.127738 0.258591 2.341805152028776e-38
1.262968 -0.133740 0.258150 2.341805152028776e-38
1.262306 -0.139937 0.258105 2.341805152028776e-38
1.260640 -0.146017 0.257860 2.341805152028776e-38
1.259918 -0.152202 0.257811 2.341805152028776e-38
1.258194 -0.158261 0.257562 2.341805152028776e-38
2.334514 -0.352013 0.478968 2.341805152028776e-38
2.419935 -0.377045 0.496742 2.341805152028776e-38
1.280793 -0.021985 0.254403 2.341805152028776e-38
