VERSION .7
FIELDS x y z rgb
SIZE 4 4 4 4
TYPE F F F F
COUNT 1 1 1 1
WIDTH 957
HEIGHT 1
VIEWPOINT 0 0 0 1 0 0 0
POINTS 957
DATA ascii
0.944660 -0.896980 0.354323 2.341805152028776e-38
0.939774 -0.903563 0.354401 2.341805152028776e-38
0.932768 -0.908104 0.353683 2.341805152028776e-38
0.925743 -0.912596 0.352955 2.341805152028776e-38
0.919382 -0.917720 0.352481 2.341805152028776e-38
0.914301 -0.924219 0.352537 2.341805152028776e-38
0.908486 -0.930015 0.352327 2.341805152028776e-38
0.903305 -0.936473 0.352368 2.341805152028776e-38
0.898079 -0.942905 0.352399 2.341805152028776e-38
0.893470 -0.950015 0.352681 2.341805152028776e-38
0.886150 -0.954302 0.351919 2.341805152028776e-38
0.880080 -0.959990 0.351680 2.341805152028776e-38
0.873974 -0.965643 0.351431 2.341805152028776e-38
0.867832 -0.971260 0.351172 2.341805152028776e-38
0.861655 -0.976841 0.350904 2.341805152028776e-38
1.929192 -1.518305 0.659343 2.341805152028776e-38
1.901930 -1.515483 0.652915 2.341805152028776e-38
1.861993 -1.502085 0.642068 2.341805152028776e-38
1.817051 -1.483991 0.629397 2.341805152028776e-38
1.027473 -0.892629 0.364407 2.341805152028776e-38
0.998097 -0.877864 0.355714 2.341805152028776e-38
0.982595 -0.875033 0.351950 2.341805152028776e-38
0.972188 -0.876575 0.349988 2.341805152028776e-38
0.963226 -0.879329 0.348534 2.341805152028776e-38
0.956397 -0.883976 0.347846 2.341805152028776e-38
0.950957 -0.889895 0.347665 2.341805152028776e-38
0.946838 -0.897156 0.348007 2.341805152028776e-38
0.941255 -0.903080 0.347829 2.341805152028776e-38
0.935636 -0.908973 0.347642 2.341805152028776e-38
0.928602 -0.913478 0.346931 2.341805152028776e-38
0.922918 -0.919298 0.346725 2.341805152028776e-38
0.916492 -0.924421 0.346261 2.341805152028776e-38
0.910676 -0.930227 0.346057 2.341805152028776e-38
0.904823 -0.936000 0.345844 2.341805152028776e-38
0.898935 -0.941738 0.345621 2.341805152028776e-38
0.894336 -0.948850 0.345902 2.341805152028776e-38
0.887704 -0.953825 0.345405 2.341805152028776e-38
0.882945 -0.960942 0.345686 2.341805152028776e-38
0.877482 -0.967325 0.345700 2.341805152028776e-38
0.870040 -0.971520 0.344937 2.341805152028776e-38
0.867062 -0.980732 0.345954 2.341805152028776e-38
1.916377 -1.505354 0.641724 2.341805152028776e-38
1.883101 -1.497631 0.633385 2.341805152028776e-38
1.843962 -1.484716 0.622999 2.341805152028776e-38
1.802048 -1.468946 0.611585 2.341805152028776e-38
1.045341 -0.895275 0.361489 2.341805152028776e-38
1.017239 -0.882014 0.353466 2.341805152028776e-38
0.998062 -0.876104 0.348487 2.341805152028776e-38
0.982565 -0.873251 0.344789 2.341805152028776e-38
0.972157 -0.874789 0.342866 2.341805152028776e-38
0.965344 -0.879493 0.342203 2.341805152028776e-38
0.960644 -0.886116 0.342290 2.341805152028776e-38
0.954484 -0.891398 0.341862 2.341805152028776e-38
0.948977 -0.897326 0.341686 2.341805152028776e-38
0.943393 -0.903259 0.341515 2.341805152028776e-38
0.937078 -0.908488 0.341081 2.341805152028776e-38
0.929353 -0.912320 0.340133 2.341805152028776e-38
0.925049 -0.919505 0.340439 2.341805152028776e-38
0.920008 -0.925989 0.340484 2.341805152028776e-38
0.912827 -0.930432 0.339782 2.341805152028776e-38
0.906300 -0.935519 0.339324 2.341805152028776e-38
0.901752 -0.942662 0.339612 2.341805152028776e-38
0.895821 -0.948380 0.339387 2.341805152028776e-38
0.889855 -0.954064 0.339152 2.341805152028776e-38
0.885117 -0.961175 0.339425 2.341805152028776e-38
0.880306 -0.968284 0.339693 2.341805152028776e-38
0.872854 -0.972492 0.338947 2.341805152028776e-38
0.876940 -0.989689 0.342708 2.341805152028776e-38
1.907233 -1.495376 0.625556 2.341805152028776e-38
1.873211 -1.486988 0.617129 2.341805152028776e-38
1.828791 -1.469759 0.605195 2.341805152028776e-38
1.777888 -1.446554 0.591004 2.341805152028776e-38
1.033525 -0.883462 0.350051 2.341805152028776e-38
1.015701 -0.878994 0.345672 2.341805152028776e-38
0.998698 -0.874983 0.341536 2.341805152028776e-38
0.984659 -0.873392 0.338399 2.341805152028776e-38
0.975682 -0.876233 0.337013 2.341805152028776e-38
0.968857 -0.880954 0.336364 2.341805152028776e-38
0.961298 -0.884972 0.335459 2.341805152028776e-38
0.955144 -0.890253 0.335042 2.341805152028776e-38
0.950371 -0.896825 0.335113 2.341805152028776e-38
0.942690 -0.900755 0.334203 2.341805152028776e-38
0.935692 -0.905302 0.333532 2.341805152028776e-38
0.930751 -0.911833 0.333597 2.341805152028776e-38
0.925766 -0.918341 0.333653 2.341805152028776e-38
0.919368 -0.923451 0.333204 2.341805152028776e-38
0.914938 -0.930630 0.333502 2.341805152028776e-38
0.909758 -0.937117 0.333550 2.341805152028776e-38
0.903862 -0.942879 0.333341 2.341805152028776e-38
0.896598 -0.947199 0.332628 2.341805152028776e-38
0.891963 -0.954299 0.332895 2.341805152028776e-38
0.887250 -0.961401 0.333159 2.341805152028776e-38
0.881135 -0.967087 0.332932 2.341805152028776e-38
0.872391 -0.969855 0.331709 2.341805152028776e-38
0.891321 -1.003715 0.341068 2.341805152028776e-38
1.879645 -1.471047 0.603657 2.341805152028776e-38
1.841920 -1.459474 0.594173 2.341805152028776e-38
1.805159 -1.448114 0.584924 2.341805152028776e-38
1.737746 -1.411309 0.565622 2.341805152028776e-38
1.026039 -0.875415 0.340256 2.341805152028776e-38
1.015576 -0.877235 0.338409 2.341805152028776e-38
1.000749 -0.875133 0.335088 2.341805152028776e-38
0.987438 -0.874171 0.332250 2.341805152028776e-38
0.978451 -0.877023 0.330891 2.341805152028776e-38
0.971618 -0.881758 0.330258 2.341805152028776e-38
0.965478 -0.887101 0.329861 2.341805152028776e-38
0.959310 -0.892405 0.329454 2.341805152028776e-38
0.953113 -0.897669 0.329039 2.341805152028776e-38
0.946147 -0.902260 0.328384 2.341805152028776e-38
0.941230 -0.908846 0.328460 2.341805152028776e-38
0.934882 -0.914052 0.328039 2.341805152028776e-38
0.928505 -0.919217 0.327610 2.341805152028776e-38
0.922786 -0.925027 0.327415 2.341805152028776e-38
0.917691 -0.931513 0.327460 2.341805152028776e-38
0.911154 -0.936623 0.327024 2.341805152028776e-38
0.904589 -0.941690 0.326579 2.341805152028776e-38
0.898665 -0.947418 0.326368 2.341805152028776e-38
0.894694 -0.955236 0.326875 2.341805152028776e-38
0.887367 -0.959483 0.326161 2.341805152028776e-38
0.882572 -0.966599 0.326425 2.341805152028776e-38
0.874475 -0.970092 0.325471 2.341805152028776e-38
1.854160 -1.448495 0.582861 2.341805152028776e-38
1.826413 -1.444590 0.576694 2.341805152028776e-38
1.788931 -1.432521 0.567391 2.341805152028776e-38
1.075716 -0.904868 0.347497 2.341805152028776e-38
1.023647 -0.871766 0.332258 2.341805152028776e-38
1.016872 -0.876737 0.331650 2.341805152028776e-38
1.004955 -0.877192 0.329355 2.341805152028776e-38
0.991616 -0.876252 0.326573 2.341805152028776e-38
0.982632 -0.879102 0.325236 2.341805152028776e-38
0.974343 -0.882556 0.324139 2.341805152028776e-38
0.968197 -0.887912 0.323751 2.341805152028776e-38
0.960599 -0.891908 0.322877 2.341805152028776e-38
0.955819 -0.898507 0.322951 2.341805152028776e-38
0.950978 -0.905098 0.323021 2.341805152028776e-38
0.943947 -0.909689 0.322381 2.341805152028776e-38
0.934116 -0.911517 0.320778 2.341805152028776e-38
0.929136 -0.918039 0.320837 2.341805152028776e-38
0.924797 -0.925223 0.321126 2.341805152028776e-38
0.919723 -0.931701 0.321167 2.341805152028776e-38
0.912507 -0.936122 0.320503 2.341805152028776e-38
0.907965 -0.943293 0.320783 2.341805152028776e-38
0.900692 -0.947631 0.320103 2.341805152028776e-38
0.895395 -0.954041 0.320127 2.341805152028776e-38
0.889394 -0.959713 0.319904 2.341805152028776e-38
0.883311 -0.965387 0.319686 2.341805152028776e-38
0.877170 -0.971043 0.319464 2.341805152028776e-38
1.441253 -1.679868 0.538624 2.341805152028776e-38
1.816993 -1.416976 0.558887 2.341805152028776e-38
1.793223 -1.415841 0.554025 2.341805152028776e-38
1.741436 -1.392036 0.540438 2.341805152028776e-38
1.051006 -0.882486 0.332190 2.341805152028776e-38
1.024161 -0.870629 0.325254 2.341805152028776e-38
1.018863 -0.876868 0.325131 2.341805152028776e-38
1.005467 -0.876054 0.322414 2.341805152028776e-38
0.992118 -0.875112 0.319690 2.341805152028776e-38
0.984606 -0.879234 0.318843 2.341805152028776e-38
0.976312 -0.882697 0.317771 2.341805152028776e-38
0.969446 -0.887405 0.317159 2.341805152028776e-38
0.963273 -0.892727 0.316774 2.341805152028776e-38
0.957780 -0.898674 0.316615 2.341805152028776e-38
0.950841 -0.903250 0.315978 2.341805152028776e-38
0.938920 -0.903113 0.313713 2.341805152028776e-38
0.931908 -0.907619 0.313081 2.341805152028776e-38
0.930414 -0.917537 0.314312 2.341805152028776e-38
0.928145 -0.926787 0.315299 2.341805152028776e-38
0.922379 -0.932591 0.315107 2.341805152028776e-38
0.915177 -0.937005 0.314453 2.341805152028776e-38
0.908607 -0.942090 0.314030 2.341805152028776e-38
0.902680 -0.947836 0.313832 2.341805152028776e-38
0.897384 -0.954256 0.313858 2.341805152028776e-38
0.890719 -0.959224 0.313410 2.341805152028776e-38
0.885976 -0.966318 0.313657 2.341805152028776e-38
1.485261 -1.727483 0.542923 2.341805152028776e-38
1.793400 -1.396233 0.539580 2.341805152028776e-38
1.767473 -1.393101 0.534114 2.341805152028776e-38
1.727150 -1.378236 0.524270 2.341805152028776e-38
1.038084 -0.870093 0.320909 2.341805152028776e-38
1.023145 -0.868226 0.317804 2.341805152028776e-38
1.013433 -0.870651 0.316304 2.341805152028776e-38
1.004465 -0.873632 0.315027 2.341805152028776e-38
0.992576 -0.873966 0.312822 2.341805152028776e-38
0.985080 -0.878075 0.311990 2.341805152028776e-38
0.976796 -0.881528 0.310939 2.341805152028776e-38
0.970653 -0.886893 0.310573 2.341805152028776e-38
0.964481 -0.892218 0.310198 2.341805152028776e-38
0.958281 -0.897504 0.309814 2.341805152028776e-38
0.950640 -0.901410 0.308964 2.341805152028776e-38
0.941548 -0.903944 0.307658 2.341805152028776e-38
0.937320 -0.911176 0.307959 2.341805152028776e-38
0.935119 -0.920443 0.308938 2.341805152028776e-38
0.928702 -0.925597 0.308532 2.341805152028776e-38
0.922258 -0.930709 0.308119 2.341805152028776e-38
0.915768 -0.935795 0.307702 2.341805152028776e-38
0.910557 -0.942281 0.307748 2.341805152028776e-38
0.904629 -0.948036 0.307557 2.341805152028776e-38
0.900000 -0.955173 0.307813 2.341805152028776e-38
0.893991 -0.960866 0.307604 2.341805152028776e-38
0.890580 -0.969393 0.308299 2.341805152028776e-38
1.431736 -1.640533 0.508408 2.341805152028776e-38
1.503302 -1.744880 0.537312 2.341805152028776e-38
1.789641 -1.391018 0.526481 2.341805152028776e-38
1.764517 -1.388419 0.521343 2.341805152028776e-38
1.071474 -0.885639 0.322359 2.341805152028776e-38
1.031780 -0.863331 0.311850 2.341805152028776e-38
1.022822 -0.866447 0.310613 2.341805152028776e-38
1.011634 -0.867599 0.308696 2.341805152028776e-38
1.001941 -0.869926 0.307223 2.341805152028776e-38
0.991527 -0.871527 0.305517 2.341805152028776e-38
0.986224 -0.877570 0.305381 2.341805152028776e-38
0.977959 -0.881005 0.304347 2.341805152028776e-38
0.971098 -0.885717 0.303766 2.341805152028776e-38
0.964933 -0.891042 0.303402 2.341805152028776e-38
0.958738 -0.896328 0.303029 2.341805152028776e-38
0.953223 -0.902243 0.302873 2.341805152028776e-38
0.947658 -0.908140 0.302713 2.341805152028776e-38
0.942707 -0.914729 0.302785 2.341805152028776e-38
0.936320 -0.919929 0.302399 2.341805152028776e-38
0.929214 -0.924399 0.301780 2.341805152028776e-38
0.924150 -0.930895 0.301826 2.341805152028776e-38
0.918358 -0.936669 0.301639 2.341805152028776e-38
0.913823 -0.943865 0.301910 2.341805152028776e-38
0.909232 -0.951046 0.302172 2.341805152028776e-38
0.903918 -0.957501 0.302201 2.341805152028776e-38
0.897230 -0.962502 0.301775 2.341805152028776e-38
0.897777 -0.975348 0.303797 2.341805152028776e-38
1.450330 -1.658536 0.503390 2.341805152028776e-38
1.511134 -1.750474 0.527921 2.341805152028776e-38
1.791186 -1.389978 0.515012 2.341805152028776e-38
1.762984 -1.384959 0.509095 2.341805152028776e-38
1.058342 -0.873340 0.311190 2.341805152028776e-38
1.032881 -0.862826 0.305106 2.341805152028776e-38
1.021706 -0.864033 0.303227 2.341805152028776e-38
1.009041 -0.863906 0.300911 2.341805152028776e-38
0.999363 -0.866214 0.299472 2.341805152028776e-38
0.991160 -0.869726 0.298467 2.341805152028776e-38
0.985140 -0.875116 0.298116 2.341805152028776e-38
0.977630 -0.879172 0.297320 2.341805152028776e-38
0.971499 -0.884536 0.296974 2.341805152028776e-38
0.966057 -0.890522 0.296841 2.341805152028776e-38
0.960577 -0.896477 0.296699 2.341805152028776e-38
0.955770 -0.903070 0.296769 2.341805152028776e-38
0.950214 -0.908966 0.296610 2.341805152028776e-38
0.943164 -0.913526 0.296021 2.341805152028776e-38
0.936783 -0.918725 0.295645 2.341805152028776e-38
0.931759 -0.925258 0.295701 2.341805152028776e-38
0.926002 -0.931074 0.295529 2.341805152028776e-38
0.920893 -0.937553 0.295567 2.341805152028776e-38
0.915697 -0.944043 0.295609 2.341805152028776e-38
0.911108 -0.951233 0.295868 2.341805152028776e-38
0.904453 -0.956278 0.295461 2.341805152028776e-38
0.895107 -0.958427 0.294171 2.341805152028776e-38
0.904293 -0.980583 0.298998 2.341805152028776e-38
1.460563 -1.666994 0.495305 2.341805152028776e-38
1.522109 -1.759748 0.519545 2.341805152028776e-38
1.798834 -1.393713 0.505291 2.341805152028776e-38
1.760590 -1.380901 0.496688 2.341805152028776e-38
1.050391 -0.865377 0.301722 2.341805152028776e-38
1.027942 -0.857312 0.296636 2.341805152028776e-38
1.015319 -0.857205 0.294361 2.341805152028776e-38
1.007877 -0.861476 0.293612 2.341805152028776e-38
1.001159 -0.866329 0.293071 2.341805152028776e-38
0.993685 -0.870492 0.292306 2.341805152028776e-38
0.986928 -0.875247 0.291749 2.341805152028776e-38
0.980150 -0.879954 0.291185 2.341805152028776e-38
0.974024 -0.885320 0.290845 2.341805152028776e-38
0.968576 -0.891318 0.290717 2.341805152028776e-38
0.963092 -0.897286 0.290580 2.341805152028776e-38
0.956860 -0.902552 0.290220 2.341805152028776e-38
0.950601 -0.907777 0.289852 2.341805152028776e-38
0.944278 -0.912996 0.289486 2.341805152028776e-38
0.939993 -0.920249 0.289767 2.341805152028776e-38
0.933573 -0.925423 0.289394 2.341805152028776e-38
0.928505 -0.931939 0.289442 2.341805152028776e-38
0.922022 -0.937038 0.289052 2.341805152028776e-38
0.917532 -0.944215 0.289305 2.341805152028776e-38
0.911591 -0.950004 0.289132 2.341805152028776e-38
0.904943 -0.955049 0.288736 2.341805152028776e-38
0.894931 -0.956484 0.287261 2.341805152028776e-38
1.497830 -1.706280 0.496075 2.341805152028776e-38
1.538805 -1.775660 0.512968 2.341805152028776e-38
1.798703 -1.391462 0.493387 2.341805152028776e-38
1.097548 -0.891790 0.306445 2.341805152028776e-38
1.043122 -0.858029 0.292585 2.341805152028776e-38
1.025193 -0.853668 0.288884 2.341805152028776e-38
1.016323 -0.856684 0.287717 2.341805152028776e-38
1.008894 -0.860943 0.286981 2.341805152028776e-38
1.003656 -0.867079 0.286877 2.341805152028776e-38
0.996909 -0.871898 0.286343 2.341805152028776e-38
0.989409 -0.876021 0.285589 2.341805152028776e-38
0.981168 -0.879435 0.284617 2.341805152028776e-38
0.975788 -0.885441 0.284492 2.341805152028776e-38
0.969620 -0.890787 0.284158 2.341805152028776e-38
0.964138 -0.896758 0.284027 2.341805152028776e-38
0.957197 -0.901357 0.283466 2.341805152028776e-38
0.952359 -0.907931 0.283529 2.341805152028776e-38
0.946757 -0.913818 0.283379 2.341805152028776e-38
0.941770 -0.920400 0.283445 2.341805152028776e-38
0.935349 -0.925583 0.283082 2.341805152028776e-38
0.930280 -0.932107 0.283132 2.341805152028776e-38
0.923109 -0.936518 0.282543 2.341805152028776e-38
0.918644 -0.943681 0.282786 2.341805152028776e-38
0.913385 -0.950179 0.282829 2.341805152028776e-38
0.907407 -0.955941 0.282654 2.341805152028776e-38
0.894038 -0.953820 0.280165 2.341805152028776e-38
1.529359 -1.738962 0.494465 2.341805152028776e-38
1.553564 -1.789350 0.505562 2.341805152028776e-38
1.797721 -1.388605 0.481309 2.341805152028776e-38
1.072773 -0.870309 0.292343 2.341805152028776e-38
1.039564 -0.853779 0.284593 2.341805152028776e-38
1.025401 -0.852521 0.282012 2.341805152028776e-38
1.018028 -0.856795 0.281287 2.341805152028776e-38
1.012104 -0.862310 0.280977 2.341805152028776e-38
1.005376 -0.867184 0.280465 2.341805152028776e-38
0.997889 -0.871367 0.279738 2.341805152028776e-38
0.991854 -0.876790 0.279417 2.341805152028776e-38
0.985062 -0.881521 0.278881 2.341805152028776e-38
0.977513 -0.885558 0.278136 2.341805152028776e-38
0.970622 -0.890250 0.277605 2.341805152028776e-38
0.967295 -0.898222 0.278097 2.341805152028776e-38
0.961055 -0.903509 0.277757 2.341805152028776e-38
0.954079 -0.908079 0.277203 2.341805152028776e-38
0.948492 -0.913959 0.277054 2.341805152028776e-38
0.943509 -0.920546 0.277119 2.341805152028776e-38
0.937781 -0.926424 0.276972 2.341805152028776e-38
0.932017 -0.932269 0.276817 2.341805152028776e-38
0.925529 -0.937384 0.276449 2.341805152028776e-38
0.920380 -0.943857 0.276483 2.341805152028776e-38
0.915139 -0.950347 0.276522 2.341805152028776e-38
0.908486 -0.955408 0.276148 2.341805152028776e-38
0.895106 -0.953290 0.273717 2.341805152028776e-38
1.501744 -1.682733 0.470732 2.341805152028776e-38
1.537637 -1.745204 0.485089 2.341805152028776e-38
1.570227 -1.805250 0.498593 2.341805152028776e-38
1.058524 -0.857450 0.281403 2.341805152028776e-38
1.036706 -0.850145 0.276867 2.341805152028776e-38
1.024057 -0.850117 0.274753 2.341805152028776e-38
1.018944 -0.856271 0.274653 2.341805152028776e-38
1.011550 -0.860499 0.273942 2.341805152028776e-38
1.004830 -0.865368 0.273443 2.341805152028776e-38
0.998827 -0.870832 0.273139 2.341805152028776e-38
0.993529 -0.876906 0.273029 2.341805152028776e-38
0.986733 -0.881645 0.272508 2.341805152028776e-38
0.979191 -0.885678 0.271778 2.341805152028776e-38
0.973749 -0.891693 0.271663 2.341805152028776e-38
0.968262 -0.897684 0.271541 2.341805152028776e-38
0.962025 -0.902974 0.271211 2.341805152028776e-38
0.955049 -0.907548 0.270672 2.341805152028776e-38
0.949466 -0.913430 0.270528 2.341805152028776e-38
0.945910 -0.921370 0.270991 2.341805152028776e-38
0.940177 -0.927261 0.270849 2.341805152028776e-38
0.935101 -0.933810 0.270900 2.341805152028776e-38
0.926535 -0.936851 0.269940 2.341805152028776e-38
0.921391 -0.943328 0.269976 2.341805152028776e-38
0.916174 -0.949805 0.270011 2.341805152028776e-38
0.910198 -0.955579 0.269848 2.341805152028776e-38
0.902844 -0.959890 0.269276 2.341805152028776e-38
1.519063 -1.699135 0.464394 2.341805152028776e-38
1.569210 -1.777885 0.482812 2.341805152028776e-38
1.588803 -1.823361 0.492018 2.341805152028776e-38
1.089818 -0.870718 0.281205 2.341805152028776e-38
1.052569 -0.851366 0.272831 2.341805152028776e-38
1.037588 -0.849610 0.270183 2.341805152028776e-38
1.026439 -0.850836 0.268515 2.341805152028776e-38
1.019820 -0.855742 0.268025 2.341805152028776e-38
1.012432 -0.859966 0.267330 2.341805152028776e-38
1.006469 -0.865464 0.267039 2.341805152028776e-38
1.001203 -0.871580 0.266941 2.341805152028776e-38
0.995165 -0.877017 0.266639 2.341805152028776e-38
0.987635 -0.881111 0.265935 2.341805152028776e-38
0.981547 -0.886461 0.265618 2.341805152028776e-38
0.975396 -0.891808 0.265305 2.341805152028776e-38
0.969908 -0.897807 0.265188 2.341805152028776e-38
0.964384 -0.903774 0.265065 2.341805152028776e-38
0.957401 -0.908360 0.264540 2.341805152028776e-38
0.951812 -0.914254 0.264401 2.341805152028776e-38
0.948274 -0.922189 0.264850 2.341805152028776e-38
0.942536 -0.928092 0.264713 2.341805152028776e-38
0.934678 -0.931884 0.263981 2.341805152028776e-38
0.928190 -0.937009 0.263633 2.341805152028776e-38
0.923732 -0.944194 0.263866 2.341805152028776e-38
0.917166 -0.949256 0.263506 2.341805152028776e-38
0.915933 -0.960000 0.264718 2.341805152028776e-38
1.530480 -1.708957 0.456088 2.341805152028776e-38
1.569637 -1.775296 0.470765 2.341805152028776e-38
1.591242 -1.822994 0.480344 2.341805152028776e-38
1.080727 -0.862240 0.271757 2.341805152028776e-38
1.049604 -0.847742 0.265124 2.341805152028776e-38
1.036149 -0.847208 0.262927 2.341805152028776e-38
1.025006 -0.848423 0.261301 2.341805152028776e-38
1.020655 -0.855208 0.261403 2.341805152028776e-38
1.014763 -0.860705 0.261113 2.341805152028776e-38
1.007324 -0.864916 0.260439 2.341805152028776e-38
1.002061 -0.871035 0.260346 2.341805152028776e-38
0.995289 -0.875828 0.259861 2.341805152028776e-38
0.988495 -0.880572 0.259368 2.341805152028776e-38
0.981680 -0.885268 0.258869 2.341805152028776e-38
0.975554 -0.890594 0.258560 2.341805152028776e-38
0.971515 -0.897924 0.258832 2.341805152028776e-38
0.965274 -0.903229 0.258521 2.341805152028776e-38
0.959716 -0.909168 0.258395 2.341805152028776e-38
0.954123 -0.915074 0.258261 2.341805152028776e-38
0.949897 -0.922319 0.258505 2.341805152028776e-38
0.944158 -0.928230 0.258373 2.341805152028776e-38
0.937687 -0.933414 0.258043 2.341805152028776e-38
0.931188 -0.938555 0.257705 2.341805152028776e-38
0.924662 -0.943654 0.257360 2.341805152028776e-38
0.916743 -0.947298 0.256626 2.341805152028776e-38
0.925711 -0.968676 0.260674 2.341805152028776e-38
1.468855 -1.616633 0.423778 2.341805152028776e-38
1.545794 -1.723156 0.448796 2.341805152028776e-38
1.583001 -1.787394 0.462552 2.341805152028776e-38
1.602653 -1.832962 0.471333 2.341805152028776e-38
1.071563 -0.853758 0.262439 2.341805152028776e-38
1.047351 -0.844730 0.257659 2.341805152028776e-38
1.035423 -0.845422 0.255894 2.341805152028776e-38
1.027309 -0.849133 0.255063 2.341805152028776e-38
1.020696 -0.854040 0.254601 2.341805152028776e-38
1.014060 -0.858900 0.254131 2.341805152028776e-38
1.008137 -0.864364 0.253847 2.341805152028776e-38
1.002879 -0.870486 0.253758 2.341805152028776e-38
0.998320 -0.877226 0.253849 2.341805152028776e-38
0.996653 -0.886557 0.254684 2.341805152028776e-38
0.993450 -0.894586 0.255135 2.341805152028776e-38
0.982200 -0.895333 0.253517 2.341805152028776e-38
0.973083 -0.898037 0.252473 2.341805152028776e-38
0.967557 -0.904020 0.252359 2.341805152028776e-38
0.961995 -0.909970 0.252237 2.341805152028776e-38
0.956397 -0.915888 0.252109 2.341805152028776e-38
0.951467 -0.922457 0.252160 2.341805152028776e-38
0.946442 -0.929051 0.252216 2.341805152028776e-38
0.939964 -0.934246 0.251896 2.341805152028776e-38
0.933459 -0.939399 0.251568 2.341805152028776e-38
0.926927 -0.944509 0.251233 2.341805152028776e-38
0.917632 -0.946754 0.250146 2.341805152028776e-38
0.939555 -0.981607 0.257631 2.341805152028776e-38
1.500579 -1.648910 0.421566 2.341805152028776e-38
1.556486 -1.732233 0.440021 2.341805152028776e-38
1.593072 -1.795809 0.453255 2.341805152028776e-38
1.609490 -1.837747 0.460895 2.341805152028776e-38
1.114461 -0.875998 0.264517 2.341805152028776e-38
1.065406 -0.847719 0.253986 2.341805152028776e-38
1.047344 -0.843563 0.250789 2.341805152028776e-38
1.037699 -0.846117 0.249621 2.341805152028776e-38
1.029577 -0.849840 0.248812 2.341805152028776e-38
1.022956 -0.854758 0.248364 2.341805152028776e-38
1.017816 -0.860899 0.248274 2.341805152028776e-38
1.011144 -0.865732 0.247812 2.341805152028776e-38
1.004398 -0.870576 0.247359 2.341805152028776e-38
1.003535 -0.880566 0.248365 2.341805152028776e-38
1.006998 -0.894497 0.250459 2.341805152028776e-38
0.992784 -0.892727 0.248159 2.341805152028776e-38
0.982264 -0.894128 0.246767 2.341805152028776e-38
0.975335 -0.898812 0.246294 2.341805152028776e-38
0.970523 -0.905477 0.246367 2.341805152028776e-38
0.964237 -0.910768 0.246067 2.341805152028776e-38
0.957923 -0.916018 0.245761 2.341805152028776e-38
0.953700 -0.923278 0.245994 2.341805152028776e-38
0.947284 -0.928490 0.245683 2.341805152028776e-38
0.942205 -0.935074 0.245736 2.341805152028776e-38
0.936387 -0.940935 0.245600 2.341805152028776e-38
0.930533 -0.946762 0.245457 2.341805152028776e-38
0.917794 -0.945498 0.243490 2.341805152028776e-38
1.536977 -1.686277 0.420205 2.341805152028776e-38
1.590163 -1.766889 0.437461 2.341805152028776e-38
1.616161 -1.818921 0.447466 2.341805152028776e-38
1.627942 -1.855831 0.453648 2.341805152028776e-38
1.092016 -0.857237 0.252128 2.341805152028776e-38
1.061498 -0.843511 0.246161 2.341805152028776e-38
1.048817 -0.843639 0.244297 2.341805152028776e-38
1.039175 -0.846187 0.243157 2.341805152028776e-38
1.032567 -0.851169 0.242729 2.341805152028776e-38
1.025937 -0.856103 0.242293 2.341805152028776e-38
1.020036 -0.861625 0.242029 2.341805152028776e-38
1.013358 -0.866469 0.241581 2.341805152028776e-38
1.008110 -0.872594 0.241493 2.341805152028776e-38
1.006501 -0.881957 0.242296 2.341805152028776e-38
1.002608 -0.889375 0.242557 2.341805152028776e-38
0.993537 -0.892177 0.241564 2.341805152028776e-38
0.983741 -0.894242 0.240388 2.341805152028776e-38
0.978274 -0.900248 0.240280 2.341805152028776e-38
0.972735 -0.906259 0.240175 2.341805152028776e-38
0.967158 -0.912237 0.240062 2.341805152028776e-38
0.961546 -0.918182 0.239943 2.341805152028776e-38
0.955190 -0.923410 0.239639 2.341805152028776e-38
0.948788 -0.928613 0.239333 2.341805152028776e-38
0.943010 -0.934511 0.239209 2.341805152028776e-38
0.937196 -0.940375 0.239078 2.341805152028776e-38
0.932036 -0.946906 0.239118 2.341805152028776e-38
0.932319 -0.959057 0.240566 2.341805152028776e-38
1.528077 -1.652961 0.403818 2.341805152028776e-38
1.584041 -1.735278 0.421184 2.341805152028776e-38
1.619917 -1.797164 0.433400 2.341805152028776e-38
1.630742 -1.832470 0.439090 2.341805152028776e-38
1.641827 -1.868733 0.444936 2.341805152028776e-38
1.135140 -0.879134 0.253663 2.341805152028776e-38
1.079539 -0.846367 0.242293 2.341805152028776e-38
1.059080 -0.840522 0.238748 2.341805152028776e-38
1.048709 -0.842484 0.237457 2.341805152028776e-38
1.039849 -0.845632 0.236518 2.341805152028776e-38
1.032482 -0.849990 0.235929 2.341805152028776e-38
1.025100 -0.854291 0.235333 2.341805152028776e-38
1.019962 -0.860442 0.235252 2.341805152028776e-38
1.013289 -0.865284 0.234817 2.341805152028776e-38
1.008809 -0.872033 0.234902 2.341805152028776e-38
1.005727 -0.880101 0.235338 2.341805152028776e-38
1.000373 -0.886206 0.235247 2.341805152028776e-38
0.993515 -0.890966 0.234803 2.341805152028776e-38
0.985908 -0.895014 0.234179 2.341805152028776e-38
0.979728 -0.900348 0.233898 2.341805152028776e-38
0.973467 -0.905694 0.233624 2.341805152028776e-38
0.968611 -0.912350 0.233690 2.341805152028776e-38
0.962285 -0.917622 0.233402 2.341805152028776e-38
0.955931 -0.922853 0.233108 2.341805152028776e-38
0.948844 -0.927354 0.232635 2.341805152028776e-38
0.943074 -0.933250 0.232516 2.341805152028776e-38
0.937268 -0.939113 0.232391 2.341805152028776e-38
0.935574 -0.949150 0.233293 2.341805152028776e-38
1.562031 -1.687205 0.401192 2.341805152028776e-38
1.610577 -1.761745 0.416205 2.341805152028776e-38
1.639103 -1.815759 0.426207 2.341805152028776e-38
1.643977 -1.844542 0.430197 2.341805152028776e-38
1.647215 -1.872013 0.433832 2.341805152028776e-38
1.112455 -0.860499 0.241484 2.341805152028776e-38
1.073971 -0.840961 0.234150 2.341805152028776e-38
1.058930 -0.839366 0.231887 2.341805152028776e-38
1.048559 -0.841325 0.230634 2.341805152028776e-38
1.041247 -0.845695 0.230055 2.341805152028776e-38
1.033876 -0.850059 0.229484 2.341805152028776e-38
1.027248 -0.854998 0.229075 2.341805152028776e-38
1.020598 -0.859889 0.228660 2.341805152028776e-38
1.015427 -0.866012 0.228576 2.341805152028776e-38
1.010960 -0.872755 0.228655 2.341805152028776e-38
1.007877 -0.880835 0.229082 2.341805152028776e-38
1.000303 -0.884992 0.228489 2.341805152028776e-38
0.993451 -0.889749 0.228058 2.341805152028776e-38
0.986578 -0.894457 0.227622 2.341805152028776e-38
0.981863 -0.901115 0.227684 2.341805152028776e-38
0.974880 -0.905796 0.227249 2.341805152028776e-38
0.969307 -0.911784 0.227146 2.341805152028776e-38
0.964411 -0.918418 0.227204 2.341805152028776e-38
0.958051 -0.923659 0.226920 2.341805152028776e-38
0.950957 -0.928170 0.226461 2.341805152028776e-38
0.944497 -0.933370 0.226175 2.341805152028776e-38
0.937993 -0.938542 0.225886 2.341805152028776e-38
0.948774 -0.961211 0.229784 2.341805152028776e-38
1.521079 -1.620064 0.377130 2.341805152028776e-38
1.599370 -1.725064 0.398956 2.341805152028776e-38
1.626467 -1.776575 0.408210 2.341805152028776e-38
1.642401 -1.816795 0.414767 2.341805152028776e-38
1.649295 -1.847779 0.419145 2.341805152028776e-38
1.651232 -1.873804 0.422349 2.341805152028776e-38
1.099815 -0.849698 0.231736 2.341805152028776e-38
1.069123 -0.836159 0.226255 2.341805152028776e-38
1.056418 -0.836370 0.224551 2.341805152028776e-38
1.048366 -0.840163 0.223827 2.341805152028776e-38
1.042605 -0.845755 0.223590 2.341805152028776e-38
1.035232 -0.850125 0.223037 2.341805152028776e-38
1.029360 -0.855701 0.222805 2.341805152028776e-38
1.023459 -0.861238 0.222567 2.341805152028776e-38
1.017528 -0.866737 0.222323 2.341805152028776e-38
1.012316 -0.872842 0.222236 2.341805152028776e-38
1.007760 -0.879619 0.222321 2.341805152028776e-38
1.000930 -0.884427 0.221911 2.341805152028776e-38
0.995550 -0.890501 0.221822 2.341805152028776e-38
0.988670 -0.895220 0.221398 2.341805152028776e-38
0.982497 -0.900556 0.221133 2.341805152028776e-38
0.976254 -0.905894 0.220872 2.341805152028776e-38
0.970680 -0.911888 0.220773 2.341805152028776e-38
0.965070 -0.917849 0.220667 2.341805152028776e-38
0.959423 -0.923777 0.220556 2.341805152028776e-38
0.953033 -0.928982 0.220274 2.341805152028776e-38
0.947284 -0.934871 0.220157 2.341805152028776e-38
0.939374 -0.938664 0.219552 2.341805152028776e-38
1.571398 -1.671337 0.378106 2.341805152028776e-38
1.626005 -1.751356 0.393627 2.341805152028776e-38
1.644994 -1.794309 0.400671 2.341805152028776e-38
1.663508 -1.837572 0.407693 2.341805152028776e-38
1.663095 -1.860572 0.410158 2.341805152028776e-38
1.656485 -1.877064 0.411166 2.341805152028776e-38
1.089445 -0.840701 0.222636 2.341805152028776e-38
1.067332 -0.833783 0.219072 2.341805152028776e-38
1.058503 -0.837044 0.218218 2.341805152028776e-38
1.051214 -0.841464 0.217676 2.341805152028776e-38
1.043911 -0.845829 0.217129 2.341805152028776e-38
1.038076 -0.851440 0.216907 2.341805152028776e-38
1.032195 -0.857031 0.216683 2.341805152028776e-38
1.024774 -0.861313 0.216135 2.341805152028776e-38
1.018842 -0.866819 0.215899 2.341805152028776e-38
1.014377 -0.873574 0.215976 2.341805152028776e-38
1.009832 -0.880345 0.216055 2.341805152028776e-38
1.002996 -0.885164 0.215658 2.341805152028776e-38
0.996875 -0.890592 0.215414 2.341805152028776e-38
0.990725 -0.895979 0.215163 2.341805152028776e-38
0.985275 -0.901992 0.215066 2.341805152028776e-38
0.979037 -0.907330 0.214810 2.341805152028776e-38
0.972735 -0.912663 0.214556 2.341805152028776e-38
0.967119 -0.918635 0.214455 2.341805152028776e-38
0.961468 -0.924574 0.214348 2.341805152028776e-38
0.956487 -0.931167 0.214392 2.341805152028776e-38
0.951443 -0.937754 0.214435 2.341805152028776e-38
0.942114 -0.940176 0.213531 2.341805152028776e-38
1.519459 -1.593724 0.352408 2.341805152028776e-38
1.601488 -1.701047 0.373673 2.341805152028776e-38
1.647937 -1.772583 0.386850 2.341805152028776e-38
1.670844 -1.820040 0.394636 2.341805152028776e-38
1.671334 -1.843713 0.397199 2.341805152028776e-38
1.666976 -1.862320 0.398644 2.341805152028776e-38
1.664941 -1.884013 0.400727 2.341805152028776e-38
1.123193 -0.855235 0.221475 2.341805152028776e-38
1.083702 -0.835320 0.214608 2.341805152028776e-38
1.067831 -0.833227 0.212391 2.341805152028776e-38
1.060551 -0.837714 0.211873 2.341805152028776e-38
1.052484 -0.841528 0.211194 2.341805152028776e-38
1.045178 -0.845899 0.210665 2.341805152028776e-38
1.038592 -0.850873 0.210292 2.341805152028776e-38
1.033475 -0.857096 0.210231 2.341805152028776e-38
1.026806 -0.862020 0.209855 2.341805152028776e-38
1.022375 -0.868816 0.209937 2.341805152028776e-38
1.015652 -0.873657 0.209549 2.341805152028776e-38
1.010378 -0.879770 0.209469 2.341805152028776e-38
1.004284 -0.885244 0.209240 2.341805152028776e-38
0.997424 -0.890020 0.208849 2.341805152028776e-38
0.992010 -0.896071 0.208762 2.341805152028776e-38
0.986559 -0.902091 0.208669 2.341805152028776e-38
0.981060 -0.908090 0.208572 2.341805152028776e-38
0.975473 -0.914110 0.208481 2.341805152028776e-38
0.968415 -0.918737 0.208076 2.341805152028776e-38
0.964188 -0.926051 0.208281 2.341805152028776e-38
0.958491 -0.931971 0.208172 2.341805152028776e-38
0.952049 -0.937167 0.207904 2.341805152028776e-38
0.947618 -0.944473 0.208104 2.341805152028776e-38
1.566665 -1.641108 0.352053 2.341805152028776e-38
1.631588 -1.730757 0.368850 2.341805152028776e-38
1.666487 -1.790190 0.379031 2.341805152028776e-38
1.670608 -1.817394 0.382300 2.341805152028776e-38
1.671796 -1.841795 0.384941 2.341805152028776e-38
1.667466 -1.860397 0.386344 2.341805152028776e-38
1.669409 -1.886514 0.389281 2.341805152028776e-38
1.106371 -0.841526 0.211220 2.341805152028776e-38
1.081820 -0.832950 0.207414 2.341805152028776e-38
1.070629 -0.834492 0.206169 2.341805152028776e-38
1.062563 -0.838381 0.205518 2.341805152028776e-38
1.054489 -0.842206 0.204861 2.341805152028776e-38
1.047175 -0.846587 0.204349 2.341805152028776e-38
1.042129 -0.852807 0.204285 2.341805152028776e-38
1.036999 -0.859050 0.204227 2.341805152028776e-38
1.030317 -0.863994 0.203864 2.341805152028776e-38
1.023613 -0.868890 0.203495 2.341805152028776e-38
1.016888 -0.873737 0.203120 2.341805152028776e-38
1.013120 -0.881138 0.203340 2.341805152028776e-38
1.007017 -0.886627 0.203118 2.341805152028776e-38
1.000885 -0.892076 0.202891 2.341805152028776e-38
0.996193 -0.898809 0.202957 2.341805152028776e-38
0.990725 -0.904852 0.202867 2.341805152028776e-38
0.985221 -0.910863 0.202772 2.341805152028776e-38
0.978897 -0.916229 0.202535 2.341805152028776e-38
0.972542 -0.921555 0.202293 2.341805152028776e-38
0.966873 -0.927524 0.202194 2.341805152028776e-38
0.959748 -0.932081 0.201791 2.341805152028776e-38
0.956129 -0.940052 0.202127 2.341805152028776e-38
1.607762 -1.682080 0.349739 2.341805152028776e-38
1.656946 -1.755430 0.362597 2.341805152028776e-38
1.681639 -1.804176 0.370238 2.341805152028776e-38
1.678996 -1.824197 0.371924 2.341805152028776e-38
1.682155 -1.850844 0.374930 2.341805152028776e-38
1.679100 -1.870981 0.376587 2.341805152028776e-38
1.676431 -1.891965 0.378393 2.341805152028776e-38
1.098922 -0.834994 0.202927 2.341805152028776e-38
1.081461 -0.831784 0.200549 2.341805152028776e-38
1.071831 -0.834538 0.199635 2.341805152028776e-38
1.064538 -0.839046 0.199151 2.341805152028776e-38
1.055683 -0.842264 0.198371 2.341805152028776e-38
1.049906 -0.847894 0.198167 2.341805152028776e-38
1.044865 -0.854113 0.198102 2.341805152028776e-38
1.039728 -0.860371 0.198048 2.341805152028776e-38
1.037588 -0.869142 0.198568 2.341805152028776e-38
1.032360 -0.875359 0.198502 2.341805152028776e-38
1.022591 -0.877680 0.197559 2.341805152028776e-38
1.015819 -0.882512 0.197191 2.341805152028776e-38
1.010458 -0.888660 0.197121 2.341805152028776e-38
1.005052 -0.894786 0.197047 2.341805152028776e-38
0.997404 -0.898894 0.196532 2.341805152028776e-38
0.992667 -0.905610 0.196591 2.341805152028776e-38
0.986431 -0.910960 0.196355 2.341805152028776e-38
0.979397 -0.915641 0.195979 2.341805152028776e-38
0.973045 -0.920969 0.195746 2.341805152028776e-38
0.967378 -0.926939 0.195651 2.341805152028776e-38
0.960966 -0.932186 0.195407 2.341805152028776e-38
0.964409 -0.947097 0.197177 2.341805152028776e-38
1.640685 -1.714474 0.345158 2.341805152028776e-38
1.676177 -1.773628 0.354726 2.341805152028776e-38
1.691352 -1.812367 0.360112 2.341805152028776e-38
1.690011 -1.833902 0.362032 2.341805152028776e-38
1.687800 -1.854762 0.363796 2.341805152028776e-38
1.684071 -1.874195 0.365259 2.341805152028776e-38
1.682734 -1.896667 0.367291 2.341805152028776e-38
1.092993 -0.829656 0.195019 2.341805152028776e-38
1.080267 -0.830019 0.193562 2.341805152028776e-38
1.071431 -0.833365 0.192818 2.341805152028776e-38
1.064143 -0.837870 0.192351 2.341805152028776e-38
1.057613 -0.842935 0.192020 2.341805152028776e-38
1.052601 -0.849197 0.191964 2.341805152028776e-38
1.045252 -0.853552 0.191481 2.341805152028776e-38
1.044711 -0.863581 0.192269 2.341805152028776e-38
1.040277 -0.870474 0.192352 2.341805152028776e-38
1.032019 -0.874147 0.191727 2.341805152028776e-38
1.025259 -0.879042 0.191378 2.341805152028776e-38
1.018477 -0.883889 0.191024 2.341805152028776e-38
1.011634 -0.888730 0.190673 2.341805152028776e-38
1.004747 -0.893546 0.190322 2.341805152028776e-38
0.997840 -0.898312 0.189966 2.341805152028776e-38
0.993839 -0.905696 0.190164 2.341805152028776e-38
0.986874 -0.910380 0.189797 2.341805152028776e-38
0.982026 -0.917077 0.189851 2.341805152028776e-38
0.974945 -0.921739 0.189486 2.341805152028776e-38
0.969274 -0.927719 0.189396 2.341805152028776e-38
0.961433 -0.931598 0.188881 2.341805152028776e-38
0.984684 -0.965927 0.194504 2.341805152028776e-38
1.595477 -1.644723 0.322388 2.341805152028776e-38
1.655122 -1.727561 0.336390 2.341805152028776e-38
1.686532 -1.782471 0.344806 2.341805152028776e-38
1.695602 -1.814762 0.348765 2.341805152028776e-38
1.696273 -1.838506 0.351042 2.341805152028776e-38
1.694713 -1.860134 0.352887 2.341805152028776e-38
1.690298 -1.878873 0.354165 2.341805152028776e-38
1.681079 -1.892476 0.354464 2.341805152028776e-38
1.090168 -0.826709 0.187739 2.341805152028776e-38
1.078238 -0.827658 0.186468 2.341805152028776e-38
1.070207 -0.831582 0.185883 2.341805152028776e-38
1.065263 -0.837916 0.185841 2.341805152028776e-38
1.060281 -0.844221 0.185794 2.341805152028776e-38
1.054491 -0.849876 0.185605 2.341805152028776e-38
1.047903 -0.854867 0.185275 2.341805152028776e-38
1.043552 -0.861741 0.185356 2.341805152028776e-38
1.039129 -0.868627 0.185437 2.341805152028776e-38
1.031636 -0.872931 0.184971 2.341805152028776e-38
1.025634 -0.878467 0.184770 2.341805152028776e-38
1.018854 -0.883314 0.184428 2.341805152028776e-38
1.012026 -0.888142 0.184088 2.341805152028776e-38
1.005882 -0.893617 0.183885 2.341805152028776e-38
0.999709 -0.899052 0.183677 2.341805152028776e-38
0.994972 -0.905779 0.183735 2.341805152028776e-38
0.990191 -0.912483 0.183786 2.341805152028776e-38
0.983895 -0.917833 0.183567 2.341805152028776e-38
0.976087 -0.921824 0.183080 2.341805152028776e-38
0.970416 -0.927810 0.182994 2.341805152028776e-38
0.963284 -0.932383 0.182632 2.341805152028776e-38
1.633341 -1.681878 0.318495 2.341805152028776e-38
1.677065 -1.748509 0.328927 2.341805152028776e-38
1.700243 -1.794903 0.335441 2.341805152028776e-38
1.707229 -1.825109 0.338864 2.341805152028776e-38
1.709868 -1.851108 0.341466 2.341805152028776e-38
1.702899 -1.866963 0.342176 2.341805152028776e-38
1.689829 -1.876178 0.341668 2.341805152028776e-38
1.678021 -1.886792 0.341419 2.341805152028776e-38
1.089668 -0.825555 0.180899 2.341805152028776e-38
1.079310 -0.827706 0.179936 2.341805152028776e-38
1.072072 -0.832228 0.179500 2.341805152028776e-38
1.067124 -0.838571 0.179461 2.341805152028776e-38
1.061362 -0.844270 0.179285 2.341805152028776e-38
1.057115 -0.851174 0.179366 2.341805152028776e-38
1.048981 -0.854926 0.178787 2.341805152028776e-38
1.043114 -0.860529 0.178600 2.341805152028776e-38
1.037938 -0.866776 0.178549 2.341805152028776e-38
1.034997 -0.874912 0.178885 2.341805152028776e-38
1.028228 -0.879822 0.178562 2.341805152028776e-38
1.022188 -0.885333 0.178364 2.341805152028776e-38
1.014613 -0.889512 0.177902 2.341805152028776e-38
1.007719 -0.894344 0.177577 2.341805152028776e-38
1.002278 -0.900450 0.177508 2.341805152028776e-38
0.997534 -0.907192 0.177564 2.341805152028776e-38
0.992015 -0.913238 0.177485 2.341805152028776e-38
0.986452 -0.919261 0.177401 2.341805152028776e-38
0.979354 -0.923947 0.177063 2.341805152028776e-38
0.972952 -0.929267 0.176850 2.341805152028776e-38
0.970086 -0.937989 0.177283 2.341805152028776e-38
1.589343 -1.614622 0.297004 2.341805152028776e-38
1.661546 -1.709081 0.312291 2.341805152028776e-38
1.690744 -1.760871 0.319630 2.341805152028776e-38
1.707764 -1.800859 0.324745 2.341805152028776e-38
1.718128 -1.834726 0.328697 2.341805152028776e-38
1.712646 -1.852055 0.329654 2.341805152028776e-38
1.701664 -1.863532 0.329563 2.341805152028776e-38
1.696583 -1.881573 0.330628 2.341805152028776e-38
1.688704 -1.896663 0.331163 2.341805152028776e-38
1.092289 -0.826793 0.174582 2.341805152028776e-38
1.081919 -0.828958 0.173655 2.341805152028776e-38
1.074683 -0.833479 0.173233 2.341805152028776e-38
1.067387 -0.838000 0.172817 2.341805152028776e-38
1.061628 -0.843698 0.172649 2.341805152028776e-38
1.056612 -0.849981 0.172602 2.341805152028776e-38
1.050021 -0.854983 0.172297 2.341805152028776e-38
1.045696 -0.861838 0.172368 2.341805152028776e-38
1.040512 -0.868099 0.172319 2.341805152028776e-38
1.036049 -0.874970 0.172392 2.341805152028776e-38
1.030033 -0.880530 0.172207 2.341805152028776e-38
1.023988 -0.886050 0.172017 2.341805152028776e-38
1.014926 -0.888918 0.171319 2.341805152028776e-38
1.008776 -0.894408 0.171132 2.341805152028776e-38
1.002596 -0.899858 0.170941 2.341805152028776e-38
0.998591 -0.907267 0.171122 2.341805152028776e-38
0.992342 -0.912647 0.170920 2.341805152028776e-38
0.988243 -0.920014 0.171090 2.341805152028776e-38
0.981142 -0.924706 0.170764 2.341805152028776e-38
0.976888 -0.932090 0.170937 2.341805152028776e-38
1.625272 -1.649414 0.292371 2.341805152028776e-38
1.682822 -1.729171 0.304472 2.341805152028776e-38
1.701628 -1.770365 0.309668 2.341805152028776e-38
1.711791 -1.803226 0.313347 2.341805152028776e-38
1.712689 -1.826963 0.315404 2.341805152028776e-38
1.708610 -1.845713 0.316579 2.341805152028776e-38
1.705033 -1.865216 0.317866 2.341805152028776e-38
1.703938 -1.887696 0.319642 2.341805152028776e-38
1.696686 -1.903569 0.320283 2.341805152028776e-38
1.097250 -0.829825 0.168610 2.341805152028776e-38
1.086069 -0.831414 0.167597 2.341805152028776e-38
1.078044 -0.835336 0.167067 2.341805152028776e-38
1.071515 -0.840488 0.166789 2.341805152028776e-38
1.064964 -0.845593 0.166507 2.341805152028776e-38
1.059163 -0.851273 0.166341 2.341805152028776e-38
1.054102 -0.857541 0.166291 2.341805152028776e-38
1.047472 -0.862518 0.165994 2.341805152028776e-38
1.042288 -0.868784 0.165948 2.341805152028776e-38
1.036304 -0.874384 0.165775 2.341805152028776e-38
1.031046 -0.880589 0.165720 2.341805152028776e-38
1.025750 -0.886764 0.165659 2.341805152028776e-38
1.017429 -0.890293 0.165109 2.341805152028776e-38
1.012023 -0.896444 0.165049 2.341805152028776e-38
1.005830 -0.901912 0.164866 2.341805152028776e-38
1.001814 -0.909340 0.165040 2.341805152028776e-38
0.996282 -0.915410 0.164968 2.341805152028776e-38
0.989987 -0.920771 0.164770 2.341805152028776e-38
0.982169 -0.924780 0.164334 2.341805152028776e-38
0.985821 -0.939703 0.165830 2.341805152028776e-38
1.590954 -1.593065 0.273557 2.341805152028776e-38
1.675849 -1.699047 0.289804 2.341805152028776e-38
1.704763 -1.749968 0.296506 2.341805152028776e-38
1.715214 -1.782714 0.300061 2.341805152028776e-38
1.718484 -1.808462 0.302399 2.341805152028776e-38
1.718026 -1.830773 0.304135 2.341805152028776e-38
1.710558 -1.845913 0.304665 2.341805152028776e-38
1.712351 -1.871286 0.306867 2.341805152028776e-38
1.711895 -1.894546 0.308696 2.341805152028776e-38
1.709232 -1.915653 0.310153 2.341805152028776e-38
1.088608 -0.832661 0.161266 2.341805152028776e-38
1.079789 -0.835987 0.160641 2.341805152028776e-38
1.072484 -0.840524 0.160256 2.341805152028776e-38
1.066708 -0.846251 0.160102 2.341805152028776e-38
1.060129 -0.851319 0.159826 2.341805152028776e-38
1.055068 -0.857592 0.159779 2.341805152028776e-38
1.048436 -0.862574 0.159495 2.341805152028776e-38
1.042500 -0.868195 0.159332 2.341805152028776e-38
1.038038 -0.875076 0.159400 2.341805152028776e-38
1.032019 -0.880646 0.159231 2.341805152028776e-38
1.026723 -0.886825 0.159174 2.341805152028776e-38
1.019147 -0.891012 0.158762 2.341805152028776e-38
1.013748 -0.897161 0.158704 2.341805152028776e-38
1.009030 -0.903964 0.158761 2.341805152028776e-38
1.003531 -0.910076 0.158696 2.341805152028776e-38
0.996531 -0.914812 0.158395 2.341805152028776e-38
0.990967 -0.920849 0.158321 2.341805152028776e-38
0.981711 -0.923490 0.157669 2.341805152028776e-38
1.001203 -0.953479 0.161663 2.341805152028776e-38
1.641772 -1.642378 0.270965 2.341805152028776e-38
1.700640 -1.722529 0.282287 2.341805152028776e-38
1.717662 -1.761516 0.286758 2.341805152028776e-38
1.724618 -1.790764 0.289596 2.341805152028776e-38
1.723746 -1.812252 0.291149 2.341805152028776e-38
1.718536 -1.829507 0.292006 2.341805152028776e-38
1.713783 -1.847561 0.292979 2.341805152028776e-38
1.718263 -1.875883 0.295557 2.341805152028776e-38
1.719124 -1.900652 0.297546 2.341805152028776e-38
1.719741 -1.925507 0.299523 2.341805152028776e-38
1.091714 -0.844542 0.155661 2.341805152028776e-38
1.076543 -0.843008 0.154169 2.341805152028776e-38
1.069195 -0.847524 0.153798 2.341805152028776e-38
1.063381 -0.853228 0.153646 2.341805152028776e-38
1.056766 -0.858266 0.153378 2.341805152028776e-38
1.050896 -0.863888 0.153218 2.341805152028776e-38
1.044963 -0.869511 0.153060 2.341805152028776e-38
1.038973 -0.875125 0.152903 2.341805152028776e-38
1.032198 -0.880055 0.152629 2.341805152028776e-38
1.027658 -0.886884 0.152687 2.341805152028776e-38
1.021576 -0.892383 0.152516 2.341805152028776e-38
1.015435 -0.897875 0.152347 2.341805152028776e-38
1.009232 -0.903361 0.152179 2.341805152028776e-38
1.003000 -0.908806 0.152007 2.341805152028776e-38
0.997472 -0.914881 0.151941 2.341805152028776e-38
0.991179 -0.920247 0.151760 2.341805152028776e-38
0.981210 -0.922196 0.151022 2.341805152028776e-38
1.675050 -1.674130 0.264930 2.341805152028776e-38
1.714231 -1.734698 0.272678 2.341805152028776e-38
1.729122 -1.771635 0.276634 2.341805152028776e-38
1.731205 -1.795946 0.278579 2.341805152028776e-38
1.732368 -1.819632 0.280402 2.341805152028776e-38
1.723054 -1.832576 0.280557 2.341805152028776e-38
1.721669 -1.854298 0.282045 2.341805152028776e-38
1.719408 -1.875344 0.283412 2.341805152028776e-38
1.720952 -1.900856 0.285432 2.341805152028776e-38
1.712970 -1.916088 0.285893 2.341805152028776e-38
1.072425 -0.849412 0.147581 2.341805152028776e-38
1.064272 -0.853268 0.147115 2.341805152028776e-38
1.056883 -0.857684 0.146752 2.341805152028776e-38
1.051785 -0.863937 0.146706 2.341805152028776e-38
1.046625 -0.870188 0.146661 2.341805152028776e-38
1.040631 -0.875811 0.146511 2.341805152028776e-38
1.033093 -0.880105 0.146143 2.341805152028776e-38
1.029306 -0.887588 0.146306 2.341805152028776e-38
1.023219 -0.893096 0.146143 2.341805152028776e-38
1.016339 -0.897927 0.145873 2.341805152028776e-38
1.010135 -0.903418 0.145713 2.341805152028776e-38
1.004639 -0.909535 0.145655 2.341805152028776e-38
0.999107 -0.915619 0.145593 2.341805152028776e-38
0.993537 -0.921670 0.145527 2.341805152028776e-38
0.989364 -0.929066 0.145672 2.341805152028776e-38
1.638072 -1.615726 0.246467 2.341805152028776e-38
1.705505 -1.703069 0.258041 2.341805152028776e-38
1.731269 -1.750396 0.263437 2.341805152028776e-38
1.739834 -1.781038 0.266268 2.341805152028776e-38
1.741872 -1.805414 0.268131 2.341805152028776e-38
1.738186 -1.824125 0.269133 2.341805152028776e-38
1.732272 -1.840706 0.269810 2.341805152028776e-38
1.726108 -1.857386 0.270493 2.341805152028776e-38
1.723165 -1.877726 0.271697 2.341805152028776e-38
1.720701 -1.898839 0.272996 2.341805152028776e-38
1.719367 -1.921478 0.274497 2.341805152028776e-38
1.064687 -0.863366 0.141159 2.341805152028776e-38
1.055710 -0.866508 0.140603 2.341805152028776e-38
1.048250 -0.870863 0.140251 2.341805152028776e-38
1.041490 -0.875855 0.140007 2.341805152028776e-38
1.036979 -0.882732 0.140065 2.341805152028776e-38
1.031671 -0.888939 0.140016 2.341805152028776e-38
1.024826 -0.893806 0.139759 2.341805152028776e-38
1.018695 -0.899293 0.139601 2.341805152028776e-38
1.011741 -0.904135 0.139347 2.341805152028776e-38
1.006978 -0.910928 0.139395 2.341805152028776e-38
1.001437 -0.917025 0.139336 2.341805152028776e-38
0.998048 -0.925118 0.139579 2.341805152028776e-38
1.680645 -1.656359 0.241435 2.341805152028776e-38
1.731014 -1.727087 0.250050 2.341805152028776e-38
1.739865 -1.757605 0.252766 2.341805152028776e-38
1.745622 -1.785454 0.255065 2.341805152028776e-38
1.744880 -1.807003 0.256439 2.341805152028776e-38
1.745997 -1.830771 0.258109 2.341805152028776e-38
1.740748 -1.848106 0.258855 2.341805152028776e-38
1.733865 -1.864109 0.259407 2.341805152028776e-38
1.730888 -1.884495 0.260557 2.341805152028776e-38
1.725049 -1.901971 0.261293 2.341805152028776e-38
1.728352 -1.929823 0.263436 2.341805152028776e-38
1.049837 -0.871535 0.133831 2.341805152028776e-38
1.043071 -0.876536 0.133598 2.341805152028776e-38
1.037041 -0.882133 0.133459 2.341805152028776e-38
1.031736 -0.888339 0.133413 2.341805152028776e-38
1.025644 -0.893859 0.133266 2.341805152028776e-38
1.018775 -0.898681 0.133018 2.341805152028776e-38
1.012566 -0.904185 0.132873 2.341805152028776e-38
