VERSION .7
FIELDS x y z rgb
SIZE 4 4 4 4
TYPE F F F F
COUNT 1 1 1 1
WIDTH 962
HEIGHT 1
VIEWPOINT 0 0 0 1 0 0 0
POINTS 962
DATA ascii
1.745879 1.860453 0.309065 2.341805152028776e-38
1.753360 1.845164 0.308536 2.341805152028776e-38
1.764082 1.833506 0.308610 2.341805152028776e-38
1.773342 1.820364 0.308434 2.341805152028776e-38
1.788781 1.813541 0.309333 2.341805152028776e-38
1.805606 1.808003 0.310465 2.341805152028776e-38
1.822392 1.802365 0.311595 2.341805152028776e-38
1.834831 1.792513 0.312007 2.341805152028776e-38
1.847931 1.783267 0.312531 2.341805152028776e-38
1.858114 1.771190 0.312563 2.341805152028776e-38
1.691810 1.918454 0.296543 2.341805152028776e-38
1.700552 1.904022 0.296181 2.341805152028776e-38
1.840261 1.796144 0.300379 2.341805152028776e-38
1.850525 1.784110 0.300417 2.341805152028776e-38
1.861432 1.772704 0.300562 2.341805152028776e-38
1.856625 1.788393 0.288847 2.341805152028776e-38
1.874037 1.783116 0.289988 2.341805152028776e-38
1.836866 1.767847 0.273378 2.341805152028776e-38
1.871453 1.779136 0.277028 2.341805152028776e-38
0.950240 0.996377 0.140473 2.341805152028776e-38
0.950873 0.984727 0.139747 2.341805152028776e-38
0.961135 0.983067 0.140438 2.341805152028776e-38
1.868787 1.775149 0.264123 2.341805152028776e-38
0.862578 0.987093 0.126868 2.341805152028776e-38
0.890578 1.006198 0.130139 2.341805152028776e-38
0.902186 1.006509 0.131006 2.341805152028776e-38
0.906475 0.998608 0.130808 2.341805152028776e-38
0.907331 0.987029 0.130123 2.341805152028776e-38
0.909435 0.976937 0.129626 2.341805152028776e-38
0.912122 0.967591 0.129222 2.341805152028776e-38
0.913982 0.957584 0.128724 2.341805152028776e-38
0.917137 0.949023 0.128416 2.341805152028776e-38
0.924398 0.944729 0.128684 2.341805152028776e-38
0.942848 0.951695 0.130500 2.341805152028776e-38
1.867482 1.772525 0.251466 2.341805152028776e-38
0.864674 0.988680 0.120873 2.341805152028776e-38
0.872887 0.985421 0.121235 2.341805152028776e-38
0.881045 0.982140 0.121598 2.341805152028776e-38
0.887188 0.976584 0.121683 2.341805152028776e-38
0.891947 0.969524 0.121580 2.341805152028776e-38
0.896653 0.962444 0.121474 2.341805152028776e-38
0.899921 0.953911 0.121181 2.341805152028776e-38
0.903068 0.945422 0.120890 2.341805152028776e-38
0.907530 0.938361 0.120779 2.341805152028776e-38
0.914029 0.933417 0.120941 2.341805152028776e-38
0.924709 0.932671 0.121653 2.341805152028776e-38
1.861762 1.765783 0.238289 2.341805152028776e-38
0.864109 0.987265 0.114510 2.341805152028776e-38
0.869002 0.980290 0.114419 2.341805152028776e-38
0.875799 0.975552 0.114589 2.341805152028776e-38
0.882570 0.970768 0.114755 2.341805152028776e-38
0.887292 0.963738 0.114657 2.341805152028776e-38
0.890602 0.955231 0.114380 2.341805152028776e-38
0.895866 0.948918 0.114365 2.341805152028776e-38
0.900357 0.941894 0.114263 2.341805152028776e-38
0.904796 0.934852 0.114157 2.341805152028776e-38
0.911274 0.929926 0.114310 2.341805152028776e-38
0.920533 0.927784 0.114809 2.341805152028776e-38
1.852340 1.755608 0.224766 2.341805152028776e-38
0.864159 0.986594 0.108247 2.341805152028776e-38
0.867716 0.978136 0.107996 2.341805152028776e-38
0.874500 0.973407 0.108156 2.341805152028776e-38
0.879247 0.966420 0.108066 2.341805152028776e-38
0.884615 0.960146 0.108055 2.341805152028776e-38
0.889940 0.953842 0.108040 2.341805152028776e-38
0.894503 0.946817 0.107943 2.341805152028776e-38
0.898980 0.939802 0.107846 2.341805152028776e-38
0.904099 0.933485 0.107828 2.341805152028776e-38
0.909871 0.927853 0.107890 2.341805152028776e-38
0.918417 0.925014 0.108279 2.341805152028776e-38
1.834870 1.737887 0.210471 2.341805152028776e-38
0.864169 0.985918 0.101992 2.341805152028776e-38
0.869036 0.978959 0.101911 2.341805152028776e-38
0.874492 0.972740 0.101906 2.341805152028776e-38
0.879234 0.965754 0.101821 2.341805152028776e-38
0.884598 0.959480 0.101810 2.341805152028776e-38
0.889918 0.953177 0.101796 2.341805152028776e-38
0.894468 0.946160 0.101704 2.341805152028776e-38
0.898941 0.939147 0.101613 2.341805152028776e-38
0.904054 0.932831 0.101595 2.341805152028776e-38
0.911219 0.928622 0.101809 2.341805152028776e-38
0.917664 0.923654 0.101942 2.341805152028776e-38
1.826711 1.729067 0.197437 2.341805152028776e-38
0.866111 0.987487 0.095963 2.341805152028776e-38
0.869656 0.979031 0.095741 2.341805152028776e-38
0.875112 0.972809 0.095737 2.341805152028776e-38
0.880525 0.966557 0.095729 2.341805152028776e-38
0.885217 0.959543 0.095646 2.341805152028776e-38
0.889176 0.951780 0.095486 2.341805152028776e-38
0.893709 0.944774 0.095401 2.341805152028776e-38
0.899552 0.939207 0.095460 2.341805152028776e-38
0.904665 0.932888 0.095444 2.341805152028776e-38
0.909735 0.926542 0.095425 2.341805152028776e-38
0.916871 0.922291 0.095622 2.341805152028776e-38
1.806875 1.709275 0.183348 2.341805152028776e-38
0.867358 0.988302 0.089846 2.341805152028776e-38
0.872888 0.982081 0.089843 2.341805152028776e-38
0.877028 0.974357 0.089703 2.341805152028776e-38
0.881106 0.966619 0.089559 2.341805152028776e-38
0.885121 0.958869 0.089412 2.341805152028776e-38
0.889755 0.951836 0.089331 2.341805152028776e-38
0.894282 0.944833 0.089251 2.341805152028776e-38
0.899435 0.938543 0.089239 2.341805152028776e-38
0.904544 0.932225 0.089223 2.341805152028776e-38
0.910308 0.926592 0.089273 2.341805152028776e-38
0.917445 0.922339 0.089458 2.341805152028776e-38
0.872518 0.993612 0.084099 2.341805152028776e-38
0.876748 0.985873 0.083970 2.341805152028776e-38
0.879575 0.976642 0.083712 2.341805152028776e-38
0.882321 0.967414 0.083451 2.341805152028776e-38
0.886340 0.959657 0.083314 2.341805152028776e-38
0.890296 0.951888 0.083175 2.341805152028776e-38
0.894816 0.944888 0.083101 2.341805152028776e-38
0.900660 0.939316 0.083153 2.341805152028776e-38
0.905078 0.932275 0.083074 2.341805152028776e-38
0.911542 0.927351 0.083184 2.341805152028776e-38
0.917276 0.921676 0.083228 2.341805152028776e-38
0.927876 0.920943 0.083722 2.341805152028776e-38
0.872372 0.992919 0.077815 2.341805152028776e-38
0.875928 0.984440 0.077637 2.341805152028776e-38
0.879412 0.975956 0.077457 2.341805152028776e-38
0.882825 0.967467 0.077274 2.341805152028776e-38
0.886843 0.959708 0.077147 2.341805152028776e-38
0.891481 0.952665 0.077076 2.341805152028776e-38
0.897373 0.947113 0.077126 2.341805152028776e-38
0.901847 0.940084 0.077056 2.341805152028776e-38
0.906270 0.933037 0.076983 2.341805152028776e-38
0.912039 0.927395 0.077026 2.341805152028776e-38
0.917069 0.921009 0.077007 2.341805152028776e-38
0.925536 0.918175 0.077287 2.341805152028776e-38
0.870863 0.990725 0.071432 2.341805152028776e-38
0.875732 0.983748 0.071376 2.341805152028776e-38
0.880547 0.976749 0.071318 2.341805152028776e-38
0.883963 0.968254 0.071150 2.341805152028776e-38
0.888663 0.961221 0.071087 2.341805152028776e-38
0.893305 0.954171 0.071022 2.341805152028776e-38
0.897832 0.947160 0.070960 2.341805152028776e-38
0.902306 0.940129 0.070895 2.341805152028776e-38
0.908120 0.934511 0.070937 2.341805152028776e-38
0.911798 0.926723 0.070813 2.341805152028776e-38
0.917524 0.921050 0.070850 2.341805152028776e-38
0.925991 0.918216 0.071108 2.341805152028776e-38
0.872611 0.992277 0.065322 2.341805152028776e-38
0.875496 0.983052 0.065123 2.341805152028776e-38
0.878968 0.974571 0.064971 2.341805152028776e-38
0.883717 0.967561 0.064916 2.341805152028776e-38
0.889090 0.961263 0.064908 2.341805152028776e-38
0.893043 0.953487 0.064800 2.341805152028776e-38
0.897566 0.946478 0.064743 2.341805152028776e-38
0.902727 0.940170 0.064733 2.341805152028776e-38
0.907844 0.933834 0.064721 2.341805152028776e-38
0.912218 0.926759 0.064658 2.341805152028776e-38
0.917940 0.921090 0.064692 2.341805152028776e-38
0.926408 0.918253 0.064927 2.341805152028776e-38
0.872341 0.991573 0.059059 2.341805152028776e-38
0.874556 0.981604 0.058834 2.341805152028776e-38
0.878687 0.973872 0.058741 2.341805152028776e-38
0.884104 0.967602 0.058736 2.341805152028776e-38
0.889477 0.961302 0.058729 2.341805152028776e-38
0.893426 0.953528 0.058631 2.341805152028776e-38
0.898636 0.947241 0.058624 2.341805152028776e-38
0.903801 0.940927 0.058615 2.341805152028776e-38
0.908923 0.934585 0.058604 2.341805152028776e-38
0.914001 0.928216 0.058592 2.341805152028776e-38
0.921139 0.923955 0.058713 2.341805152028776e-38
0.928207 0.919693 0.058836 2.341805152028776e-38
0.870711 0.989365 0.052725 2.341805152028776e-38
0.875570 0.982390 0.052683 2.341805152028776e-38
0.879706 0.974652 0.052600 2.341805152028776e-38
0.885128 0.968376 0.052595 2.341805152028776e-38
0.889826 0.961337 0.052549 2.341805152028776e-38
0.894454 0.954294 0.052502 2.341805152028776e-38
0.898980 0.947276 0.052455 2.341805152028776e-38
0.904146 0.940960 0.052447 2.341805152028776e-38
0.909964 0.935333 0.052477 2.341805152028776e-38
0.916449 0.930381 0.052546 2.341805152028776e-38
0.922891 0.925402 0.052615 2.341805152028776e-38
0.929258 0.920426 0.052684 2.341805152028776e-38
0.872343 0.990902 0.046594 2.341805152028776e-38
0.876546 0.983172 0.046522 2.341805152028776e-38
0.880016 0.974686 0.046414 2.341805152028776e-38
0.884764 0.967671 0.046374 2.341805152028776e-38
0.889458 0.960634 0.046333 2.341805152028776e-38
0.894077 0.953597 0.046291 2.341805152028776e-38
0.899286 0.947307 0.046285 2.341805152028776e-38
0.905837 0.942430 0.046349 2.341805152028776e-38
0.910968 0.936077 0.046340 2.341805152028776e-38
0.917457 0.931119 0.046401 2.341805152028776e-38
0.922489 0.924722 0.046391 2.341805152028776e-38
0.928852 0.919750 0.046452 2.341805152028776e-38
0.871956 0.990184 0.040352 2.341805152028776e-38
0.874823 0.980965 0.040229 2.341805152028776e-38
0.879618 0.973974 0.040196 2.341805152028776e-38
0.884361 0.966961 0.040161 2.341805152028776e-38
0.889050 0.959928 0.040126 2.341805152028776e-38
0.894345 0.953625 0.040120 2.341805152028776e-38
0.899554 0.947334 0.040115 2.341805152028776e-38
0.904720 0.941015 0.040109 2.341805152028776e-38
0.909144 0.933952 0.040071 2.341805152028776e-38
0.914919 0.928295 0.040092 2.341805152028776e-38
0.920636 0.922624 0.040114 2.341805152028776e-38
0.927698 0.918367 0.040198 2.341805152028776e-38
0.872189 0.990212 0.034145 2.341805152028776e-38
0.876386 0.982483 0.034092 2.341805152028776e-38
0.880521 0.974741 0.034039 2.341805152028776e-38
0.885268 0.967723 0.034009 2.341805152028776e-38
0.889961 0.960684 0.033979 2.341805152028776e-38
0.894575 0.953650 0.033949 2.341805152028776e-38
0.899095 0.946632 0.033918 2.341805152028776e-38
0.904949 0.941037 0.033939 2.341805152028776e-38
0.910071 0.934689 0.033933 2.341805152028776e-38
0.915851 0.929026 0.033951 2.341805152028776e-38
0.920863 0.922645 0.033943 2.341805152028776e-38
0.928636 0.919090 0.034040 2.341805152028776e-38
0.874367 0.992486 0.028001 2.341805152028776e-38
0.877912 0.983998 0.027937 2.341805152028776e-38
0.880715 0.974762 0.027850 2.341805152028776e-38
0.884787 0.967006 0.027805 2.341805152028776e-38
0.888796 0.959237 0.027759 2.341805152028776e-38
0.894766 0.953670 0.027777 2.341805152028776e-38
0.899975 0.947376 0.027773 2.341805152028776e-38
0.905834 0.941776 0.027790 2.341805152028776e-38
0.910262 0.934707 0.027764 2.341805152028776e-38
0.915340 0.928331 0.027757 2.341805152028776e-38
0.921759 0.923370 0.027794 2.341805152028776e-38
0.928825 0.919106 0.027852 2.341805152028776e-38
0.964472 0.942744 0.028762 2.341805152028776e-38
0.879811 0.998506 0.021911 2.341805152028776e-38
0.884059 0.990729 0.021877 2.341805152028776e-38
0.884893 0.979230 0.021761 2.341805152028776e-38
0.884267 0.966284 0.021610 2.341805152028776e-38
0.887592 0.957785 0.021558 2.341805152028776e-38
0.894919 0.953686 0.021605 2.341805152028776e-38
0.900128 0.947392 0.021602 2.341805152028776e-38
0.905294 0.941070 0.021598 2.341805152028776e-38
0.911113 0.935437 0.021611 2.341805152028776e-38
0.916195 0.929056 0.021606 2.341805152028776e-38
0.921910 0.923384 0.021618 2.341805152028776e-38
0.928977 0.919120 0.021663 2.341805152028776e-38
0.958194 0.936467 0.022221 2.341805152028776e-38
0.881251 1.000020 0.015674 2.341805152028776e-38
0.886840 0.993727 0.015674 2.341805152028776e-38
0.885010 0.979243 0.015544 2.341805152028776e-38
0.885733 0.967771 0.015460 2.341805152028776e-38
0.891106 0.961463 0.015458 2.341805152028776e-38
0.896403 0.955156 0.015456 2.341805152028776e-38
0.901621 0.948853 0.015454 2.341805152028776e-38
0.906795 0.942522 0.015451 2.341805152028776e-38
0.911926 0.936163 0.015448 2.341805152028776e-38
0.917715 0.930489 0.015457 2.341805152028776e-38
0.922024 0.923395 0.015441 2.341805152028776e-38
0.929091 0.919130 0.015474 2.341805152028776e-38
0.953304 0.931585 0.015790 2.341805152028776e-38
0.876040 0.994028 0.009348 2.341805152028776e-38
0.882923 0.989260 0.009362 2.341805152028776e-38
0.885088 0.979251 0.009326 2.341805152028776e-38
0.887836 0.969992 0.009297 2.341805152028776e-38
0.892543 0.962938 0.009289 2.341805152028776e-38
0.897164 0.955893 0.009281 2.341805152028776e-38
0.901697 0.948861 0.009272 2.341805152028776e-38
0.906872 0.942529 0.009271 2.341805152028776e-38
0.912002 0.936170 0.009269 2.341805152028776e-38
0.917791 0.930496 0.009274 2.341805152028776e-38
0.924220 0.925525 0.009286 2.341805152028776e-38
0.930589 0.920543 0.009298 2.341805152028776e-38
0.950521 0.928796 0.009445 2.341805152028776e-38
0.872773 0.990281 0.003104 2.341805152028776e-38
0.878967 0.984788 0.003107 2.341805152028776e-38
0.883115 0.977030 0.003102 2.341805152028776e-38
0.887875 0.969996 0.003099 2.341805152028776e-38
0.892582 0.962942 0.003096 2.341805152028776e-38
0.899255 0.958085 0.003101 2.341805152028776e-38
0.903802 0.951039 0.003098 2.341805152028776e-38
0.907604 0.943254 0.003093 2.341805152028776e-38
0.912739 0.936890 0.003092 2.341805152028776e-38
0.919234 0.931923 0.003096 2.341805152028776e-38
0.925671 0.926943 0.003100 2.341805152028776e-38
0.932049 0.921952 0.003104 2.341805152028776e-38
0.946983 0.925305 0.003137 2.341805152028776e-38
0.874096 0.991782 -0.003109 2.341805152028776e-38
0.879633 0.985534 -0.003109 2.341805152028776e-38
0.883786 0.977772 -0.003104 2.341805152028776e-38
0.889226 0.971472 -0.003104 2.341805152028776e-38
0.893942 0.964408 -0.003101 2.341805152028776e-38
0.899255 0.958085 -0.003101 2.341805152028776e-38
0.903114 0.950314 -0.003095 2.341805152028776e-38
0.908297 0.943974 -0.003095 2.341805152028776e-38
0.913436 0.937606 -0.003094 2.341805152028776e-38
0.919936 0.932635 -0.003098 2.341805152028776e-38
0.925671 0.926943 -0.003100 2.341805152028776e-38
0.931338 0.921249 -0.003102 2.341805152028776e-38
0.943407 0.921810 -0.003125 2.341805152028776e-38
0.877362 0.995528 -0.009362 2.341805152028776e-38
0.881592 0.987768 -0.009348 2.341805152028776e-38
0.885088 0.979251 -0.009326 2.341805152028776e-38
0.889187 0.971468 -0.009311 2.341805152028776e-38
0.894583 0.965138 -0.009310 2.341805152028776e-38
0.899901 0.958810 -0.009309 2.341805152028776e-38
0.903764 0.951035 -0.009294 2.341805152028776e-38
0.908952 0.944691 -0.009292 2.341805152028776e-38
0.913398 0.937603 -0.009283 2.341805152028776e-38
0.919196 0.931920 -0.009288 2.341805152028776e-38
0.924926 0.926232 -0.009293 2.341805152028776e-38
0.930589 0.920543 -0.009298 2.341805152028776e-38
0.941938 0.920410 -0.009360 2.341805152028776e-38
0.877945 0.996269 -0.015616 2.341805152028776e-38
0.880848 0.987013 -0.015568 2.341805152028776e-38
0.885680 0.979985 -0.015555 2.341805152028776e-38
0.889109 0.971460 -0.015519 2.341805152028776e-38
0.894505 0.965130 -0.015517 2.341805152028776e-38
0.899824 0.958802 -0.015515 2.341805152028776e-38
0.902998 0.950303 -0.015477 2.341805152028776e-38
0.908875 0.944684 -0.015487 2.341805152028776e-38
0.914019 0.938312 -0.015484 2.341805152028776e-38
0.919821 0.932625 -0.015492 2.341805152028776e-38
0.926263 0.927640 -0.015512 2.341805152028776e-38
0.931224 0.921239 -0.015509 2.341805152028776e-38
0.940431 0.919005 -0.015576 2.341805152028776e-38
0.877167 0.995505 -0.021845 2.341805152028776e-38
0.880731 0.986999 -0.021795 2.341805152028776e-38
0.884893 0.979230 -0.021761 2.341805152028776e-38
0.889667 0.972185 -0.021742 2.341805152028776e-38
0.895068 0.965852 -0.021739 2.341805152028776e-38
0.899709 0.958790 -0.021720 2.341805152028776e-38
0.904261 0.951741 -0.021701 2.341805152028776e-38
0.908760 0.944673 -0.021681 2.341805152028776e-38
0.914601 0.939018 -0.021693 2.341805152028776e-38
0.921812 0.934751 -0.021738 2.341805152028776e-38
0.926856 0.928337 -0.021734 2.341805152028776e-38
0.931820 0.921933 -0.021729 2.341805152028776e-38
0.938887 0.917598 -0.021774 2.341805152028776e-38
0.877671 0.996237 -0.028107 2.341805152028776e-38
0.881905 0.988474 -0.028064 2.341805152028776e-38
0.886077 0.980697 -0.028020 2.341805152028776e-38
0.891536 0.974382 -0.028017 2.341805152028776e-38
0.895591 0.966570 -0.027971 2.341805152028776e-38
0.901607 0.960961 -0.027989 2.341805152028776e-38
0.905484 0.953175 -0.027943 2.341805152028776e-38
0.910685 0.946820 -0.027939 2.341805152028776e-38
0.916540 0.941153 -0.027955 2.341805152028776e-38
0.922360 0.935450 -0.027970 2.341805152028776e-38
0.927410 0.929031 -0.027964 2.341805152028776e-38
0.932379 0.922623 -0.027958 2.341805152028776e-38
0.938019 0.916887 -0.027973 2.341805152028776e-38
0.948659 0.915978 -0.028136 2.341805152028776e-38
0.878136 0.996964 -0.034378 2.341805152028776e-38
0.882375 0.989197 -0.034325 2.341805152028776e-38
0.887222 0.982159 -0.034298 2.341805152028776e-38
0.890666 0.973624 -0.034217 2.341805152028776e-38
0.895396 0.966551 -0.034187 2.341805152028776e-38
0.901414 0.960941 -0.034208 2.341805152028776e-38
0.905291 0.953156 -0.034152 2.341805152028776e-38
0.909800 0.946081 -0.034121 2.341805152028776e-38
0.915650 0.940419 -0.034141 2.341805152028776e-38
0.921465 0.934721 -0.034159 2.341805152028776e-38
0.926513 0.928306 -0.034152 2.341805152028776e-38
0.931478 0.921903 -0.034145 2.341805152028776e-38
0.937829 0.916871 -0.034188 2.341805152028776e-38
0.946310 0.913880 -0.034309 2.341805152028776e-38
0.875919 0.994685 -0.040536 2.341805152028776e-38
0.881475 0.988425 -0.040535 2.341805152028776e-38
0.886318 0.981392 -0.040502 2.341805152028776e-38
0.889757 0.972862 -0.040406 2.341805152028776e-38
0.895162 0.966528 -0.040401 2.341805152028776e-38
0.899815 0.959458 -0.040366 2.341805152028776e-38
0.905060 0.953133 -0.040361 2.341805152028776e-38
0.910954 0.947500 -0.040385 2.341805152028776e-38
0.916116 0.941114 -0.040378 2.341805152028776e-38
0.921234 0.934702 -0.040369 2.341805152028776e-38
0.926990 0.928992 -0.040391 2.341805152028776e-38
0.932670 0.923289 -0.040413 2.341805152028776e-38
0.939029 0.918250 -0.040465 2.341805152028776e-38
0.944643 0.912473 -0.040485 2.341805152028776e-38
0.876966 0.996153 -0.046841 2.341805152028776e-38
0.881867 0.989139 -0.046805 2.341805152028776e-38
0.886044 0.981362 -0.046732 2.341805152028776e-38
0.889484 0.972834 -0.046621 2.341805152028776e-38
0.895568 0.967234 -0.046651 2.341805152028776e-38
0.900912 0.960888 -0.046645 2.341805152028776e-38
0.906167 0.954555 -0.046640 2.341805152028776e-38
0.910685 0.947474 -0.046597 2.341805152028776e-38
0.915847 0.941090 -0.046589 2.341805152028776e-38
0.922367 0.936102 -0.046650 2.341805152028776e-38
0.927429 0.929675 -0.046639 2.341805152028776e-38
0.933113 0.923969 -0.046665 2.341805152028776e-38
0.938047 0.917529 -0.046654 2.341805152028776e-38
0.942938 0.911064 -0.046641 2.341805152028776e-38
0.880613 1.000616 -0.053324 2.341805152028776e-38
0.883548 0.991341 -0.053163 2.341805152028776e-38
0.888409 0.984295 -0.053121 2.341805152028776e-38
0.893891 0.977964 -0.053116 2.341805152028776e-38
0.897971 0.970136 -0.053030 2.341805152028776e-38
0.902654 0.963042 -0.052983 2.341805152028776e-38
0.906546 0.955249 -0.052897 2.341805152028776e-38
0.912453 0.949606 -0.052929 2.341805152028776e-38
0.916932 0.942494 -0.052879 2.341805152028776e-38
0.922059 0.936076 -0.052868 2.341805152028776e-38
0.927830 0.930354 -0.052896 2.341805152028776e-38
0.934228 0.925348 -0.052966 2.341805152028776e-38
0.937742 0.917504 -0.052873 2.341805152028776e-38
0.942633 0.911040 -0.052859 2.341805152028776e-38
0.993010 0.948019 -0.055383 2.341805152028776e-38
0.878940 0.999074 -0.059506 2.341805152028776e-38
0.883195 0.991301 -0.059416 2.341805152028776e-38
0.888057 0.984256 -0.059368 2.341805152028776e-38
0.895560 0.980139 -0.059497 2.341805152028776e-38
0.899655 0.972301 -0.059401 2.341805152028776e-38
0.901623 0.962276 -0.059169 2.341805152028776e-38
0.906199 0.955214 -0.059117 2.341805152028776e-38
0.912106 0.949573 -0.059154 2.341805152028776e-38
0.916585 0.942463 -0.059098 2.341805152028776e-38
0.922412 0.936758 -0.059131 2.341805152028776e-38
0.928897 0.931737 -0.059207 2.341805152028776e-38
0.934593 0.926021 -0.059240 2.341805152028776e-38
0.938827 0.918873 -0.059182 2.341805152028776e-38
0.943726 0.912402 -0.059166 2.341805152028776e-38
0.986871 0.942473 -0.061536 2.341805152028776e-38
0.878547 0.999027 -0.065767 2.341805152028776e-38
0.882803 0.991256 -0.065667 2.341805152028776e-38
0.889671 0.986438 -0.065763 2.341805152028776e-38
0.897188 0.982311 -0.065906 2.341805152028776e-38
0.897906 0.970795 -0.065552 2.341805152028776e-38
0.901237 0.962235 -0.065395 2.341805152028776e-38
0.906500 0.955899 -0.065387 2.341805152028776e-38
0.912411 0.950256 -0.065427 2.341805152028776e-38
0.918287 0.944576 -0.065466 2.341805152028776e-38
0.923428 0.938148 -0.065452 2.341805152028776e-38
0.928515 0.931701 -0.065437 2.341805152028776e-38
0.934211 0.925987 -0.065474 2.341805152028776e-38
0.939872 0.920238 -0.065508 2.341805152028776e-38
0.946934 0.915843 -0.065641 2.341805152028776e-38
0.982863 0.938994 -0.067762 2.341805152028776e-38
0.880751 1.001975 -0.072243 2.341805152028776e-38
0.883699 0.992698 -0.072025 2.341805152028776e-38
0.889908 0.987132 -0.072076 2.341805152028776e-38
0.895408 0.980790 -0.072071 2.341805152028776e-38
0.898153 0.971485 -0.071846 2.341805152028776e-38
0.901494 0.962919 -0.071674 2.341805152028776e-38
0.907449 0.957305 -0.071720 2.341805152028776e-38
0.913369 0.951655 -0.071764 2.341805152028776e-38
0.917166 0.943821 -0.071643 2.341805152028776e-38
0.923002 0.938111 -0.071683 2.341805152028776e-38
0.928799 0.932369 -0.071721 2.341805152028776e-38
0.934499 0.926653 -0.071761 2.341805152028776e-38
0.940165 0.920901 -0.071799 2.341805152028776e-38
0.946512 0.915810 -0.071890 2.341805152028776e-38
0.974487 0.931373 -0.073614 2.341805152028776e-38
0.882255 1.004168 -0.078697 2.341805152028776e-38
0.885882 0.995627 -0.078519 2.341805152028776e-38
0.890104 0.987822 -0.078399 2.341805152028776e-38
0.894937 0.980741 -0.078334 2.341805152028776e-38
0.899038 0.972905 -0.078208 2.341805152028776e-38
0.903758 0.965785 -0.078138 2.341805152028776e-38
0.909731 0.960157 -0.078189 2.341805152028776e-38
0.912905 0.951610 -0.078001 2.341805152028776e-38
0.917398 0.944494 -0.077929 2.341805152028776e-38
0.923238 0.938782 -0.077972 2.341805152028776e-38
0.928339 0.932327 -0.077954 2.341805152028776e-38
0.933332 0.925909 -0.077938 2.341805152028776e-38
0.939705 0.920863 -0.078039 2.341805152028776e-38
0.946769 0.916468 -0.078197 2.341805152028776e-38
0.968966 0.926509 -0.079597 2.341805152028776e-38
0.884371 1.007110 -0.085241 2.341805152028776e-38
0.887359 0.997805 -0.084987 2.341805152028776e-38
0.890261 0.988507 -0.084729 2.341805152028776e-38
0.893753 0.979949 -0.084532 2.341805152028776e-38
0.899205 0.973586 -0.084524 2.341805152028776e-38
0.903930 0.966465 -0.084448 2.341805152028776e-38
0.909227 0.960105 -0.084439 2.341805152028776e-38
0.913092 0.952282 -0.084300 2.341805152028776e-38
0.917591 0.945164 -0.084222 2.341805152028776e-38
0.922735 0.938738 -0.084206 2.341805152028776e-38
0.927836 0.932286 -0.084186 2.341805152028776e-38
0.933543 0.926567 -0.084233 2.341805152028776e-38
0.939920 0.921519 -0.084342 2.341805152028776e-38
0.946987 0.917123 -0.084513 2.341805152028776e-38
0.964131 0.922332 -0.085577 2.341805152028776e-38
0.884469 1.007798 -0.091618 2.341805152028776e-38
0.888132 0.999232 -0.091412 2.341805152028776e-38
0.891045 0.989929 -0.091136 2.341805152028776e-38
0.894548 0.981365 -0.090925 2.341805152028776e-38
0.899332 0.974264 -0.090848 2.341805152028776e-38
0.905425 0.968599 -0.090904 2.341805152028776e-38
0.909370 0.960774 -0.090757 2.341805152028776e-38
0.913930 0.953669 -0.090677 2.341805152028776e-38
0.918438 0.946545 -0.090593 2.341805152028776e-38
0.923592 0.940114 -0.090576 2.341805152028776e-38
0.928702 0.933656 -0.090555 2.341805152028776e-38
0.934423 0.927925 -0.090605 2.341805152028776e-38
0.940808 0.922871 -0.090723 2.341805152028776e-38
0.947166 0.917774 -0.090838 2.341805152028776e-38
0.959263 0.918152 -0.091500 2.341805152028776e-38
0.882552 1.006233 -0.097784 2.341805152028776e-38
0.886877 0.998418 -0.097637 2.341805152028776e-38
0.889786 0.989121 -0.097342 2.341805152028776e-38
0.893958 0.981303 -0.097190 2.341805152028776e-38
0.899419 0.974937 -0.097180 2.341805152028776e-38
0.904154 0.967813 -0.097095 2.341805152028776e-38
0.910158 0.962163 -0.097156 2.341805152028776e-38
0.914039 0.954332 -0.096998 2.341805152028776e-38
0.918551 0.947207 -0.096909 2.341805152028776e-38
0.923710 0.940774 -0.096890 2.341805152028776e-38
0.929527 0.935022 -0.096942 2.341805152028776e-38
0.935971 0.929982 -0.097069 2.341805152028776e-38
0.941656 0.924219 -0.097121 2.341805152028776e-38
0.948022 0.919116 -0.097244 2.341805152028776e-38
0.957962 0.917419 -0.097732 2.341805152028776e-38
0.974438 0.921802 -0.098878 2.341805152028776e-38
0.879283 1.003163 -0.103775 2.341805152028776e-38
0.885583 0.997598 -0.103851 2.341805152028776e-38
0.889823 0.989792 -0.103693 2.341805152028776e-38
0.894000 0.981973 -0.103531 2.341805152028776e-38
0.898114 0.974140 -0.103365 2.341805152028776e-38
0.904886 0.969209 -0.103508 2.341805152028776e-38
0.910906 0.963547 -0.103573 2.341805152028776e-38
0.914796 0.955711 -0.103405 2.341805152028776e-38
0.919319 0.948581 -0.103311 2.341805152028776e-38
0.924486 0.942143 -0.103291 2.341805152028776e-38
0.931014 0.937092 -0.103425 2.341805152028776e-38
0.937477 0.932034 -0.103559 2.341805152028776e-38
0.942464 0.925563 -0.103538 2.341805152028776e-38
0.948122 0.919760 -0.103591 2.341805152028776e-38
0.955184 0.915302 -0.103797 2.341805152028776e-38
0.969468 0.917646 -0.104783 2.341805152028776e-38
0.880575 1.005336 -0.110303 2.341805152028776e-38
0.885573 0.998265 -0.110219 2.341805152028776e-38
0.889819 0.990458 -0.110051 2.341805152028776e-38
0.894001 0.982638 -0.109880 2.341805152028776e-38
0.900147 0.977003 -0.109952 2.341805152028776e-38
0.904897 0.969873 -0.109856 2.341805152028776e-38
0.909560 0.962754 -0.109760 2.341805152028776e-38
0.914136 0.955646 -0.109664 2.341805152028776e-38
0.919352 0.949234 -0.109648 2.341805152028776e-38
0.925221 0.943507 -0.109710 2.341805152028776e-38
0.931055 0.937743 -0.109769 2.341805152028776e-38
0.936823 0.931975 -0.109829 2.341805152028776e-38
0.942520 0.926205 -0.109889 2.341805152028776e-38
0.948183 0.920401 -0.109945 2.341805152028776e-38
0.954528 0.915252 -0.110082 2.341805152028776e-38
0.964464 0.913487 -0.110630 2.341805152028776e-38
0.883137 1.009004 -0.117032 2.341805152028776e-38
0.886844 1.000418 -0.116768 2.341805152028776e-38
0.890440 0.991861 -0.116504 2.341805152028776e-38
0.894633 0.984036 -0.116324 2.341805152028776e-38
0.900787 0.978396 -0.116401 2.341805152028776e-38
0.905547 0.971261 -0.116300 2.341805152028776e-38
0.910911 0.964854 -0.116285 2.341805152028776e-38
0.915501 0.957736 -0.116184 2.341805152028776e-38
0.920731 0.951316 -0.116167 2.341805152028776e-38
0.925219 0.944155 -0.116059 2.341805152028776e-38
0.931057 0.938391 -0.116122 2.341805152028776e-38
0.936836 0.932614 -0.116184 2.341805152028776e-38
0.942538 0.926843 -0.116248 2.341805152028776e-38
0.947489 0.920344 -0.116221 2.341805152028776e-38
0.952396 0.913819 -0.116190 2.341805152028776e-38
0.960874 0.910696 -0.116594 2.341805152028776e-38
0.884341 1.011168 -0.123622 2.341805152028776e-38
0.887413 1.001820 -0.123252 2.341805152028776e-38
0.890354 0.992517 -0.122883 2.341805152028776e-38
0.895223 0.985429 -0.122785 2.341805152028776e-38
0.901386 0.979784 -0.122867 2.341805152028776e-38
0.906156 0.972644 -0.122761 2.341805152028776e-38
0.911537 0.966225 -0.122745 2.341805152028776e-38
0.916824 0.959822 -0.122731 2.341805152028776e-38
0.921375 0.952677 -0.122622 2.341805152028776e-38
0.927266 0.946934 -0.122693 2.341805152028776e-38
0.931018 0.939035 -0.122483 2.341805152028776e-38
0.935399 0.931843 -0.122363 2.341805152028776e-38
0.941096 0.926081 -0.122431 2.341805152028776e-38
0.945329 0.918896 -0.122310 2.341805152028776e-38
0.951665 0.913763 -0.122463 2.341805152028776e-38
0.959418 0.909957 -0.122797 2.341805152028776e-38
0.883537 1.011077 -0.129950 2.341805152028776e-38
0.887939 1.003217 -0.129754 2.341805152028776e-38
0.890892 0.993910 -0.129366 2.341805152028776e-38
0.895102 0.986079 -0.129167 2.341805152028776e-38
0.899922 0.978969 -0.129060 2.341805152028776e-38
0.906044 0.973294 -0.129143 2.341805152028776e-38
0.910756 0.966142 -0.129029 2.341805152028776e-38
0.916731 0.960464 -0.129112 2.341805152028776e-38
0.921979 0.954033 -0.129094 2.341805152028776e-38
0.927182 0.947575 -0.129072 2.341805152028776e-38
0.931640 0.940382 -0.128949 2.341805152028776e-38
0.935334 0.932475 -0.128725 2.341805152028776e-38
0.941035 0.926711 -0.128797 2.341805152028776e-38
0.947414 0.921607 -0.128962 2.341805152028776e-38
0.953047 0.915771 -0.129026 2.341805152028776e-38
0.960811 0.911956 -0.129378 2.341805152028776e-38
0.882038 1.010232 -0.136175 2.341805152028776e-38
0.887106 1.003117 -0.136070 2.341805152028776e-38
0.890725 0.994556 -0.135765 2.341805152028776e-38
0.894272 0.985989 -0.135455 2.341805152028776e-38
0.898420 0.978150 -0.135243 2.341805152028776e-38
0.903859 0.971755 -0.135228 2.341805152028776e-38
0.911301 0.967504 -0.135514 2.341805152028776e-38
0.915224 0.959661 -0.135296 2.341805152028776e-38
0.921158 0.953954 -0.135380 2.341805152028776e-38
0.926362 0.947500 -0.135357 2.341805152028776e-38
0.931521 0.941018 -0.135330 2.341805152028776e-38
0.935931 0.933807 -0.135198 2.341805152028776e-38
0.942351 0.928734 -0.135375 2.341805152028776e-38
0.946603 0.921540 -0.135243 2.341805152028776e-38
0.952954 0.916397 -0.135413 2.341805152028776e-38
0.959998 0.911897 -0.135680 2.341805152028776e-38
0.883116 1.012380 -0.142812 2.341805152028776e-38
0.888201 1.005254 -0.142702 2.341805152028776e-38
0.891180 0.995938 -0.142277 2.341805152028776e-38
0.894070 0.986630 -0.141848 2.341805152028776e-38
0.901586 0.982454 -0.142156 2.341805152028776e-38
0.913145 0.982594 -0.143096 2.341805152028776e-38
0.919290 0.976834 -0.143184 2.341805152028776e-38
0.919167 0.964612 -0.142320 2.341805152028776e-38
0.921680 0.955302 -0.141877 2.341805152028776e-38
0.926198 0.948132 -0.141747 2.341805152028776e-38
0.931361 0.941651 -0.141720 2.341805152028776e-38
0.936480 0.935142 -0.141688 2.341805152028776e-38
0.942918 0.930055 -0.141873 2.341805152028776e-38
0.947179 0.922856 -0.141736 2.341805152028776e-38
0.952821 0.917019 -0.141807 2.341805152028776e-38
0.959868 0.912518 -0.142088 2.341805152028776e-38
0.884149 1.014522 -0.149475 2.341805152028776e-38
0.887934 1.005898 -0.149139 2.341805152028776e-38
0.892255 0.998055 -0.148916 2.341805152028776e-38
0.894495 0.988003 -0.148358 2.341805152028776e-38
0.909406 0.991881 -0.149898 2.341805152028776e-38
0.916285 0.986871 -0.150107 2.341805152028776e-38
0.919734 0.978194 -0.149756 2.341805152028776e-38
0.919635 0.965960 -0.148853 2.341805152028776e-38
0.921470 0.955930 -0.148280 2.341805152028776e-38
0.925299 0.948049 -0.148034 2.341805152028776e-38
0.930463 0.941572 -0.148006 2.341805152028776e-38
0.936987 0.936473 -0.148196 2.341805152028776e-38
0.942028 0.929975 -0.148166 2.341805152028776e-38
0.947002 0.923474 -0.148134 2.341805152028776e-38
0.951932 0.916948 -0.148098 2.341805152028776e-38
0.958977 0.912451 -0.148392 2.341805152028776e-38
0.885138 1.016658 -0.156164 2.341805152028776e-38
0.888282 1.007282 -0.155700 2.341805152028776e-38
0.892624 0.999426 -0.155466 2.341805152028776e-38
0.896876 0.991581 -0.155231 2.341805152028776e-38
0.907104 0.990314 -0.156030 2.341805152028776e-38
0.912621 0.983861 -0.156017 2.341805152028776e-38
0.915374 0.974482 -0.155536 2.341805152028776e-38
0.918692 0.965862 -0.155171 2.341805152028776e-38
0.921909 0.957268 -0.154806 2.341805152028776e-38
0.926442 0.950095 -0.154667 2.341805152028776e-38
0.932317 0.944316 -0.154754 2.341805152028776e-38
0.938155 0.938502 -0.154837 2.341805152028776e-38
0.942514 0.931287 -0.154688 2.341805152028776e-38
0.947496 0.924782 -0.154656 2.341805152028776e-38
0.951719 0.917562 -0.154504 2.341805152028776e-38
0.958767 0.913066 -0.154810 2.341805152028776e-38
0.884127 1.016541 -0.162519 2.341805152028776e-38
0.887931 1.007915 -0.162157 2.341805152028776e-38
0.892290 1.000051 -0.161913 2.341805152028776e-38
0.897880 0.993679 -0.161909 2.341805152028776e-38
0.904094 0.988010 -0.162021 2.341805152028776e-38
0.909599 0.981574 -0.162007 2.341805152028776e-38
0.913699 0.973661 -0.161748 2.341805152028776e-38
0.918394 0.966480 -0.161608 2.341805152028776e-38
0.922306 0.958602 -0.161349 2.341805152028776e-38
0.926848 0.951425 -0.161205 2.341805152028776e-38
0.932034 0.944936 -0.161176 2.341805152028776e-38
0.937877 0.939122 -0.161263 2.341805152028776e-38
0.943663 0.933293 -0.161349 2.341805152028776e-38
0.947948 0.926086 -0.161196 2.341805152028776e-38
0.952181 0.918862 -0.161038 2.341805152028776e-38
0.957798 0.912992 -0.161116 2.341805152028776e-38
0.883727 1.017168 -0.168997 2.341805152028776e-38
0.888849 1.010033 -0.168870 2.341805152028776e-38
0.892575 1.001411 -0.168491 2.341805152028776e-38
0.897509 0.994299 -0.168364 2.341805152028776e-38
0.903058 0.987898 -0.168356 2.341805152028776e-38
0.907889 0.980740 -0.168217 2.341805152028776e-38
0.913343 0.974284 -0.168199 2.341805152028776e-38
0.917372 0.966373 -0.167927 2.341805152028776e-38
0.921973 0.959216 -0.167784 2.341805152028776e-38
0.927905 0.953461 -0.167885 2.341805152028776e-38
0.932408 0.946257 -0.167731 2.341805152028776e-38
0.938259 0.940440 -0.167823 2.341805152028776e-38
0.944064 0.934596 -0.167910 2.341805152028776e-38
0.947650 0.926691 -0.167627 2.341805152028776e-38
0.951888 0.919468 -0.167463 2.341805152028776e-38
0.957508 0.913598 -0.167546 2.341805152028776e-38
0.883935 1.018538 -0.175610 2.341805152028776e-38
0.887103 1.009166 -0.175092 2.341805152028776e-38
0.891499 1.001284 -0.174827 2.341805152028776e-38
0.896433 0.994177 -0.174696 2.341805152028776e-38
0.901982 0.987782 -0.174688 2.341805152028776e-38
0.906141 0.979900 -0.174416 2.341805152028776e-38
0.911591 0.973454 -0.174397 2.341805152028776e-38
0.916311 0.966262 -0.174244 2.341805152028776e-38
0.921600 0.959825 -0.174226 2.341805152028776e-38
0.926844 0.953360 -0.174202 2.341805152028776e-38
0.932043 0.946868 -0.174173 2.341805152028776e-38
0.937198 0.940349 -0.174139 2.341805152028776e-38
0.942308 0.933803 -0.174099 2.341805152028776e-38
0.948020 0.927986 -0.174195 2.341805152028776e-38
0.951554 0.920070 -0.173896 2.341805152028776e-38
0.958613 0.915571 -0.174244 2.341805152028776e-38
0.882801 1.018405 -0.181972 2.341805152028776e-38
0.885973 1.009038 -0.181436 2.341805152028776e-38
0.891695 1.002636 -0.181429 2.341805152028776e-38
0.896644 0.995523 -0.181293 2.341805152028776e-38
0.900867 0.987660 -0.181018 2.341805152028776e-38
0.906371 0.981240 -0.181005 2.341805152028776e-38
0.911831 0.974791 -0.180987 2.341805152028776e-38
0.916564 0.967593 -0.180829 2.341805152028776e-38
0.921871 0.961144 -0.180809 2.341805152028776e-38
0.927124 0.954676 -0.180786 2.341805152028776e-38
0.932333 0.948180 -0.180757 2.341805152028776e-38
0.936798 0.940956 -0.180588 2.341805152028776e-38
0.941912 0.934412 -0.180547 2.341805152028776e-38
0.946932 0.927890 -0.180511 2.341805152028776e-38
0.952604 0.922047 -0.180607 2.341805152028776e-38
0.958957 0.916854 -0.180833 2.341805152028776e-38
0.882923 1.019763 -0.188608 2.341805152028776e-38
0.886108 1.010395 -0.188055 2.341805152028776e-38
0.891182 1.003249 -0.187910 2.341805152028776e-38
0.894825 0.994654 -0.187491 2.341805152028776e-38
0.900379 0.988265 -0.187484 2.341805152028776e-38
0.906559 0.982574 -0.187611 2.341805152028776e-38
0.911352 0.975398 -0.187454 2.341805152028776e-38
0.915410 0.967483 -0.187152 2.341805152028776e-38
0.921415 0.961743 -0.187270 2.341805152028776e-38
0.926673 0.955276 -0.187247 2.341805152028776e-38
0.931192 0.948075 -0.187078 2.341805152028776e-38
0.936356 0.941559 -0.187044 2.341805152028776e-38
0.942178 0.935713 -0.187143 2.341805152028776e-38
0.947219 0.929176 -0.187104 2.341805152028776e-38
0.952900 0.923329 -0.187204 2.341805152028776e-38
0.957829 0.916764 -0.187159 2.341805152028776e-38
0.883002 1.021116 -0.195260 2.341805152028776e-38
0.886851 1.012489 -0.194832 2.341805152028776e-38
0.889971 1.003116 -0.194254 2.341805152028776e-38
0.895613 0.996725 -0.194250 2.341805152028776e-38
0.901181 0.990329 -0.194245 2.341805152028776e-38
0.907375 0.984631 -0.194377 2.341805152028776e-38
0.912182 0.977448 -0.194216 2.341805152028776e-38
0.916935 0.970245 -0.194049 2.341805152028776e-38
0.922287 0.963766 -0.194026 2.341805152028776e-38
0.927558 0.957292 -0.194003 2.341805152028776e-38
0.931398 0.949378 -0.193686 2.341805152028776e-38
0.936571 0.942859 -0.193651 2.341805152028776e-38
0.942401 0.937010 -0.193755 2.341805152028776e-38
0.946053 0.929070 -0.193424 2.341805152028776e-38
0.952443 0.923918 -0.193674 2.341805152028776e-38
0.958090 0.918039 -0.193773 2.341805152028776e-38
0.882390 1.021713 -0.201780 2.341805152028776e-38
0.885596 1.012345 -0.201192 2.341805152028776e-38
0.890030 1.004459 -0.200892 2.341805152028776e-38
0.895696 0.998053 -0.200886 2.341805152028776e-38
0.901273 0.991654 -0.200882 2.341805152028776e-38
0.905466 0.983771 -0.200575 2.341805152028776e-38
0.910944 0.977322 -0.200558 2.341805152028776e-38
0.917056 0.971563 -0.200684 2.341805152028776e-38
0.922430 0.965069 -0.200658 2.341805152028776e-38
0.927023 0.957882 -0.200487 2.341805152028776e-38
0.930870 0.949970 -0.200161 2.341805152028776e-38
0.936047 0.943452 -0.200126 2.341805152028776e-38
0.941180 0.936907 -0.200085 2.341805152028776e-38
0.946257 0.930347 -0.200040 2.341805152028776e-38
0.951945 0.924503 -0.200150 2.341805152028776e-38
0.958310 0.919309 -0.200403 2.341805152028776e-38
0.882381 1.023053 -0.208459 2.341805152028776e-38
0.886900 1.015172 -0.208158 2.341805152028776e-38
0.891356 1.007276 -0.207851 2.341805152028776e-38
0.896395 1.000111 -0.207691 2.341805152028776e-38
0.900658 0.992242 -0.207382 2.341805152028776e-38
0.905526 0.985089 -0.207219 2.341805152028776e-38
0.910340 0.977914 -0.207050 2.341805152028776e-38
0.915099 0.970719 -0.206875 2.341805152028776e-38
0.921166 0.964937 -0.207000 2.341805152028776e-38
0.925760 0.957756 -0.206824 2.341805152028776e-38
0.930300 0.950556 -0.206643 2.341805152028776e-38
0.935482 0.944040 -0.206608 2.341805152028776e-38
0.941319 0.938195 -0.206721 2.341805152028776e-38
0.946415 0.931622 -0.206674 2.341805152028776e-38
0.951406 0.925082 -0.206634 2.341805152028776e-38
0.957774 0.919891 -0.206896 2.341805152028776e-38
0.881683 1.023638 -0.214996 2.341805152028776e-38
0.884911 1.014271 -0.214373 2.341805152028776e-38
0.890017 1.007126 -0.214214 2.341805152028776e-38
0.895069 0.999958 -0.214048 2.341805152028776e-38
0.899337 0.992093 -0.213731 2.341805152028776e-38
0.903538 0.984218 -0.213407 2.341805152028776e-38
0.907004 0.975608 -0.212918 2.341805152028776e-38
0.911751 0.968432 -0.212738 2.341805152028776e-38
0.917807 0.962666 -0.212867 2.341805152028776e-38
0.925143 0.958336 -0.213317 2.341805152028776e-38
0.930379 0.951844 -0.213289 2.341805152028776e-38
0.934875 0.944624 -0.213097 2.341805152028776e-38
0.939318 0.937386 -0.212898 2.341805152028776e-38
0.945817 0.932210 -0.213167 2.341805152028776e-38
0.950827 0.925658 -0.213124 2.341805152028776e-38
0.956486 0.919783 -0.213237 2.341805152028776e-38
0.881586 1.024966 -0.221701 2.341805152028776e-38
0.886124 1.017085 -0.221384 2.341805152028776e-38
0.888639 1.006970 -0.220574 2.341805152028776e-38
0.894349 1.000545 -0.220567 2.341805152028776e-38
0.898639 0.992669 -0.220239 2.341805152028776e-38
0.901513 0.983342 -0.219581 2.341805152028776e-38
0.903635 0.973297 -0.218754 2.341805152028776e-38
0.907694 0.965422 -0.218407 2.341805152028776e-38
0.917133 0.963252 -0.219354 2.341805152028776e-38
0.925170 0.959620 -0.219979 2.341805152028776e-38
0.930415 0.953126 -0.219952 2.341805152028776e-38
0.934921 0.945904 -0.219755 2.341805152028776e-38
0.940072 0.939361 -0.219715 2.341805152028776e-38
0.945178 0.932792 -0.219668 2.341805152028776e-38
0.951620 0.927605 -0.219948 2.341805152028776e-38
0.956580 0.921039 -0.219902 2.341805152028776e-38
0.883372 1.028530 -0.228920 2.341805152028776e-38
0.885994 1.018404 -0.228097 2.341805152028776e-38
0.889827 1.009768 -0.227599 2.341805152028776e-38
0.895557 1.003332 -0.227593 2.341805152028776e-38
0.899221 0.994703 -0.227086 2.341805152028776e-38
0.901447 0.984643 -0.226245 2.341805152028776e-38
0.903583 0.974596 -0.225395 2.341805152028776e-38
0.909678 0.968876 -0.225542 2.341805152028776e-38
0.917096 0.964548 -0.226016 2.341805152028776e-38
0.923786 0.959479 -0.226322 2.341805152028776e-38
0.930407 0.954403 -0.226631 2.341805152028776e-38
0.934231 0.946477 -0.226262 2.341805152028776e-38
0.939386 0.939937 -0.226222 2.341805152028776e-38
0.944497 0.933370 -0.226175 2.341805152028776e-38
0.950957 0.928170 -0.226461 2.341805152028776e-38
0.955212 0.920922 -0.226247 2.341805152028776e-38
0.880617 1.026852 -0.234985 2.341805152028776e-38
0.885819 1.019717 -0.234824 2.341805152028776e-38
0.890967 1.012559 -0.234656 2.341805152028776e-38
0.894748 1.003907 -0.234138 2.341805152028776e-38
0.899097 0.995998 -0.233787 2.341805152028776e-38
0.903997 0.988846 -0.233611 2.341805152028776e-38
0.907504 0.980227 -0.233083 2.341805152028776e-38
0.912287 0.973042 -0.232892 2.341805152028776e-38
0.918371 0.967266 -0.233038 2.341805152028776e-38
0.924411 0.961462 -0.233178 2.341805152028776e-38
0.930356 0.955674 -0.233325 2.341805152028776e-38
0.934191 0.947747 -0.232948 2.341805152028776e-38
0.939355 0.941204 -0.232908 2.341805152028776e-38
0.945875 0.936022 -0.233207 2.341805152028776e-38
0.950957 0.929419 -0.233153 2.341805152028776e-38
0.955222 0.922169 -0.232935 2.341805152028776e-38
0.879747 1.027411 -0.241554 2.341805152028776e-38
0.884310 1.019535 -0.241215 2.341805152028776e-38
0.889458 1.012385 -0.241044 2.341805152028776e-38
0.893898 1.004476 -0.240689 2.341805152028776e-38
0.898270 0.996556 -0.240327 2.341805152028776e-38
0.903839 0.990133 -0.240324 2.341805152028776e-38
0.908695 0.982959 -0.240137 2.341805152028776e-38
0.912824 0.975046 -0.239765 2.341805152028776e-38
0.918244 0.968550 -0.239740 2.341805152028776e-38
0.924983 0.963445 -0.240061 2.341805152028776e-38
0.930261 0.956940 -0.240035 2.341805152028776e-38
0.934107 0.949011 -0.239649 2.341805152028776e-38
0.939975 0.943164 -0.239787 2.341805152028776e-38
0.945108 0.936589 -0.239741 2.341805152028776e-38
0.950195 0.929989 -0.239688 2.341805152028776e-38
0.954482 0.922726 -0.239462 2.341805152028776e-38
0.878834 1.027963 -0.248129 2.341805152028776e-38
0.884048 1.020834 -0.247963 2.341805152028776e-38
0.888558 1.012944 -0.247608 2.341805152028776e-38
0.893658 1.005773 -0.247427 2.341805152028776e-38
0.898702 0.998581 -0.247237 2.341805152028776e-38
0.903636 0.991414 -0.247052 2.341805152028776e-38
0.907836 0.983516 -0.246680 2.341805152028776e-38
0.912643 0.976325 -0.246482 2.341805152028776e-38
0.918073 0.969827 -0.246458 2.341805152028776e-38
0.923457 0.963302 -0.246426 2.341805152028776e-38
0.928753 0.956788 -0.246397 2.341805152028776e-38
0.933980 0.950269 -0.246366 2.341805152028776e-38
0.940549 0.945117 -0.246692 2.341805152028776e-38
0.944997 0.937845 -0.246464 2.341805152028776e-38
0.949391 0.930555 -0.246229 2.341805152028776e-38
0.954407 0.923962 -0.246177 2.341805152028776e-38
0.881068 1.032246 -0.255634 2.341805152028776e-38
0.883740 1.022127 -0.254726 2.341805152028776e-38
0.888910 1.014974 -0.254549 2.341805152028776e-38
0.893372 1.007064 -0.254179 2.341805152028776e-38
0.899084 1.000602 -0.254172 2.341805152028776e-38
0.902067 0.991236 -0.253423 2.341805152028776e-38
0.906934 0.984068 -0.253229 2.341805152028776e-38
0.911748 0.976879 -0.253028 2.341805152028776e-38
0.916507 0.969671 -0.252818 2.341805152028776e-38
0.922571 0.963863 -0.252974 2.341805152028776e-38
0.927888 0.957336 -0.252942 2.341805152028776e-38
0.931744 0.949418 -0.252539 2.341805152028776e-38
0.937614 0.943581 -0.252688 2.341805152028776e-38
0.943448 0.937709 -0.252829 2.341805152028776e-38
0.948545 0.931115 -0.252777 2.341805152028776e-38
0.952878 0.923825 -0.252533 2.341805152028776e-38
0.881974 1.035025 -0.262812 2.341805152028776e-38
0.884671 1.024898 -0.261882 2.341805152028776e-38
0.889214 1.016998 -0.261514 2.341805152028776e-38
0.893693 1.009084 -0.261137 2.341805152028776e-38
0.897452 1.000424 -0.260561 2.341805152028776e-38
0.901118 0.991777 -0.259980 2.341805152028776e-38
0.906656 0.985335 -0.259974 2.341805152028776e-38
0.911479 0.978146 -0.259770 2.341805152028776e-38
0.916249 0.970937 -0.259557 2.341805152028776e-38
0.921642 0.964418 -0.259528 2.341805152028776e-38
0.926983 0.957878 -0.259492 2.341805152028776e-38
0.931532 0.950664 -0.259272 2.341805152028776e-38
0.938792 0.946220 -0.259809 2.341805152028776e-38
0.943947 0.939646 -0.259766 2.341805152028776e-38
0.948357 0.932358 -0.259522 2.341805152028776e-38
0.953417 0.925738 -0.259463 2.341805152028776e-38
0.879651 1.034061 -0.269050 2.341805152028776e-38
0.883630 1.025433 -0.268489 2.341805152028776e-38
0.887535 1.016798 -0.267918 2.341805152028776e-38
0.892666 1.009626 -0.267728 2.341805152028776e-38
0.897742 1.002432 -0.267530 2.341805152028776e-38
0.902103 0.994492 -0.267129 2.341805152028776e-38
0.906332 0.986596 -0.266734 2.341805152028776e-38
0.910498 0.978688 -0.266331 2.341805152028776e-38
0.915946 0.972196 -0.266311 2.341805152028776e-38
0.920671 0.964967 -0.266087 2.341805152028776e-38
0.925343 0.957719 -0.265855 2.341805152028776e-38
0.931961 0.952606 -0.266216 2.341805152028776e-38
0.938541 0.947459 -0.266573 2.341805152028776e-38
0.943011 0.940192 -0.266334 2.341805152028776e-38
0.947427 0.932908 -0.266087 2.341805152028776e-38
0.952491 0.926291 -0.266028 2.341805152028776e-38
0.877920 1.033841 -0.275475 2.341805152028776e-38
0.883185 1.026703 -0.275299 2.341805152028776e-38
0.887103 1.018068 -0.274717 2.341805152028776e-38
0.891596 1.010162 -0.274325 2.341805152028776e-38
0.897331 1.003703 -0.274324 2.341805152028776e-38
0.902363 0.996487 -0.274114 2.341805152028776e-38
0.906626 0.988572 -0.273709 2.341805152028776e-38
0.911475 0.981377 -0.273499 2.341805152028776e-38
0.917612 0.975590 -0.273680 2.341805152028776e-38
0.922361 0.968348 -0.273454 2.341805152028776e-38
0.926376 0.960382 -0.273018 2.341805152028776e-38
0.930975 0.953139 -0.272784 2.341805152028776e-38
0.937557 0.947996 -0.273151 2.341805152028776e-38
0.942726 0.941424 -0.273109 2.341805152028776e-38
0.949244 0.936203 -0.273461 2.341805152028776e-38
0.957137 0.932306 -0.274208 2.341805152028776e-38
0.881197 1.039600 -0.283527 2.341805152028776e-38
0.882694 1.027966 -0.282123 2.341805152028776e-38
0.885341 1.017854 -0.281122 2.341805152028776e-38
0.891131 1.011425 -0.281131 2.341805152028776e-38
0.896223 1.004235 -0.280928 2.341805152028776e-38
0.899948 0.995571 -0.280307 2.341805152028776e-38
0.904228 0.987653 -0.279889 2.341805152028776e-38
0.908408 0.979753 -0.279471 2.341805152028776e-38
0.912525 0.971842 -0.279044 2.341805152028776e-38
0.915230 0.962501 -0.278198 2.341805152028776e-38
0.917855 0.953167 -0.277343 2.341805152028776e-38
0.921747 0.945258 -0.276894 2.341805152028776e-38
0.930342 0.942259 -0.277886 2.341805152028776e-38
0.937552 0.937806 -0.278461 2.341805152028776e-38
0.946832 0.935365 -0.279645 2.341805152028776e-38
0.958218 0.934898 -0.281440 2.341805152028776e-38
0.897078 1.020025 -0.290039 2.341805152028776e-38
0.900926 1.011333 -0.289417 2.341805152028776e-38
0.909942 1.008445 -0.290458 2.341805152028776e-38
0.919604 1.006217 -0.291705 2.341805152028776e-38
1.420149 1.392774 -0.448194 2.341805152028776e-38
1.528833 1.619459 -0.511125 2.341805152028776e-38
