VERSION .7
FIELDS x y z rgb
SIZE 4 4 4 4
TYPE F F F F
COUNT 1 1 1 1
WIDTH 938
HEIGHT 1
VIEWPOINT 0 0 0 1 0 0 0
POINTS 938
DATA ascii
1.005476 -0.801294 -0.076752 2.341805152028776e-38
0.996827 -0.804103 -0.076436 2.341805152028776e-38
1.022203 -0.834617 -0.078737 2.341805152028776e-38
2.379473 -1.340927 -0.176610 2.341805152028776e-38
2.364256 -1.349552 -0.176029 2.341805152028776e-38
2.341207 -1.353615 -0.174869 2.341805152028776e-38
1.169964 -0.720706 -0.088854 2.341805152028776e-38
1.130318 -0.705114 -0.086145 2.341805152028776e-38
1.112821 -0.702955 -0.085111 2.341805152028776e-38
1.102111 -0.704923 -0.084591 2.341805152028776e-38
1.093089 -0.707878 -0.084197 2.341805152028776e-38
1.088227 -0.713512 -0.084126 2.341805152028776e-38
1.082470 -0.718615 -0.083994 2.341805152028776e-38
1.075862 -0.723119 -0.083795 2.341805152028776e-38
1.069238 -0.727571 -0.083593 2.341805152028776e-38
1.063420 -0.732537 -0.083454 2.341805152028776e-38
1.057566 -0.737480 -0.083314 2.341805152028776e-38
1.054099 -0.744160 -0.083371 2.341805152028776e-38
1.049777 -0.750245 -0.083361 2.341805152028776e-38
1.044612 -0.755720 -0.083283 2.341805152028776e-38
1.040224 -0.761751 -0.083268 2.341805152028776e-38
1.035789 -0.767772 -0.083252 2.341805152028776e-38
1.032874 -0.775021 -0.083369 2.341805152028776e-38
1.026730 -0.779848 -0.083225 2.341805152028776e-38
1.021357 -0.785238 -0.083143 2.341805152028776e-38
1.015168 -0.789979 -0.082994 2.341805152028776e-38
1.010515 -0.795924 -0.082973 2.341805152028776e-38
1.005003 -0.801275 -0.082891 2.341805152028776e-38
0.996357 -0.804082 -0.082548 2.341805152028776e-38
2.378465 -1.340929 -0.189692 2.341805152028776e-38
2.359786 -1.347569 -0.188790 2.341805152028776e-38
2.335878 -1.351130 -0.187477 2.341805152028776e-38
1.153308 -0.710764 -0.094119 2.341805152028776e-38
1.123043 -0.700888 -0.091972 2.341805152028776e-38
1.108950 -0.700820 -0.091138 2.341805152028776e-38
1.099095 -0.703305 -0.090648 2.341805152028776e-38
1.091759 -0.707328 -0.090363 2.341805152028776e-38
1.087729 -0.713511 -0.090357 2.341805152028776e-38
1.081972 -0.718610 -0.090215 2.341805152028776e-38
1.077021 -0.724225 -0.090140 2.341805152028776e-38
1.067918 -0.726999 -0.089715 2.341805152028776e-38
1.063747 -0.733090 -0.089703 2.341805152028776e-38
1.065248 -0.743181 -0.090177 2.341805152028776e-38
1.062562 -0.750482 -0.090307 2.341805152028776e-38
1.052523 -0.752554 -0.089811 2.341805152028776e-38
1.044921 -0.756291 -0.089520 2.341805152028776e-38
1.040529 -0.762323 -0.089504 2.341805152028776e-38
1.037687 -0.769544 -0.089626 2.341805152028776e-38
1.033165 -0.775606 -0.089612 2.341805152028776e-38
1.026225 -0.779831 -0.089388 2.341805152028776e-38
1.020852 -0.785218 -0.089299 2.341805152028776e-38
1.016239 -0.791183 -0.089277 2.341805152028776e-38
1.010789 -0.796524 -0.089186 2.341805152028776e-38
1.006054 -0.802499 -0.089167 2.341805152028776e-38
0.997402 -0.805313 -0.088799 2.341805152028776e-38
2.372173 -1.337990 -0.202330 2.341805152028776e-38
2.352650 -1.344101 -0.201291 2.341805152028776e-38
2.322713 -1.344149 -0.199371 2.341805152028776e-38
1.141723 -0.703962 -0.099648 2.341805152028776e-38
1.117431 -0.697718 -0.097870 2.341805152028776e-38
1.105046 -0.698685 -0.097127 2.341805152028776e-38
1.097726 -0.702760 -0.096825 2.341805152028776e-38
1.091232 -0.707318 -0.096594 2.341805152028776e-38
1.085527 -0.712414 -0.096440 2.341805152028776e-38
1.082270 -0.719157 -0.096510 2.341805152028776e-38
1.075661 -0.723660 -0.096281 2.341805152028776e-38
1.067387 -0.726988 -0.095901 2.341805152028776e-38
1.069785 -0.737605 -0.096480 2.341805152028776e-38
1.072886 -0.748882 -0.097135 2.341805152028776e-38
1.063650 -0.751622 -0.096682 2.341805152028776e-38
1.052797 -0.753121 -0.096077 2.341805152028776e-38
1.045193 -0.756860 -0.095766 2.341805152028776e-38
1.040798 -0.762894 -0.095748 2.341805152028776e-38
1.036344 -0.768936 -0.095731 2.341805152028776e-38
1.030231 -0.773793 -0.095568 2.341805152028776e-38
1.024890 -0.779209 -0.095476 2.341805152028776e-38
1.020311 -0.785197 -0.095455 2.341805152028776e-38
1.015698 -0.791158 -0.095432 2.341805152028776e-38
1.010243 -0.796505 -0.095335 2.341805152028776e-38
1.005507 -0.802478 -0.095313 2.341805152028776e-38
1.003064 -0.810302 -0.095511 2.341805152028776e-38
2.373628 -1.339460 -0.215620 2.341805152028776e-38
2.349775 -1.343106 -0.214118 2.341805152028776e-38
1.175734 -0.716203 -0.108916 2.341805152028776e-38
1.133507 -0.699254 -0.105367 2.341805152028776e-38
1.115170 -0.696661 -0.104026 2.341805152028776e-38
1.103638 -0.698147 -0.103313 2.341805152028776e-38
1.096322 -0.702215 -0.102992 2.341805152028776e-38
1.090669 -0.707308 -0.102825 2.341805152028776e-38
1.086625 -0.713505 -0.102820 2.341805152028776e-38
1.082531 -0.719703 -0.102815 2.341805152028776e-38
1.075093 -0.723651 -0.102491 2.341805152028776e-38
1.068470 -0.728099 -0.102244 2.341805152028776e-38
1.069215 -0.737590 -0.102702 2.341805152028776e-38
1.066585 -0.744878 -0.102849 2.341805152028776e-38
1.057375 -0.747582 -0.102366 2.341805152028776e-38
1.051413 -0.752527 -0.102195 2.341805152028776e-38
1.047043 -0.758597 -0.102178 2.341805152028776e-38
1.041834 -0.764053 -0.102080 2.341805152028776e-38
1.035765 -0.768922 -0.101905 2.341805152028776e-38
1.030450 -0.774375 -0.101810 2.341805152028776e-38
1.025900 -0.780396 -0.101791 2.341805152028776e-38
1.019735 -0.785174 -0.101611 2.341805152028776e-38
1.015908 -0.791745 -0.101664 2.341805152028776e-38
1.009660 -0.796485 -0.101483 2.341805152028776e-38
1.007262 -0.804320 -0.101696 2.341805152028776e-38
1.015660 -0.820929 -0.103006 2.341805152028776e-38
2.371537 -1.338969 -0.228605 2.341805152028776e-38
2.346831 -1.342109 -0.226927 2.341805152028776e-38
1.163196 -0.708935 -0.114344 2.341805152028776e-38
1.129502 -0.697161 -0.111419 2.341805152028776e-38
1.115410 -0.697187 -0.110414 2.341805152028776e-38
1.103879 -0.698675 -0.109658 2.341805152028776e-38
1.096562 -0.702745 -0.109316 2.341805152028776e-38
1.090907 -0.707839 -0.109138 2.341805152028776e-38
1.085187 -0.712955 -0.108967 2.341805152028776e-38
1.080266 -0.718592 -0.108878 2.341805152028776e-38
1.074490 -0.723641 -0.108701 2.341805152028776e-38
1.069514 -0.729209 -0.108606 2.341805152028776e-38
1.064510 -0.734744 -0.108506 2.341805152028776e-38
1.060254 -0.740873 -0.108496 2.341805152028776e-38
1.055952 -0.746994 -0.108485 2.341805152028776e-38
1.050804 -0.752511 -0.108386 2.341805152028776e-38
1.046434 -0.758578 -0.108368 2.341805152028776e-38
1.040423 -0.763441 -0.108180 2.341805152028776e-38
1.036751 -0.770095 -0.108246 2.341805152028776e-38
1.030632 -0.774955 -0.108061 2.341805152028776e-38
1.025286 -0.780374 -0.107957 2.341805152028776e-38
1.019911 -0.785757 -0.107849 2.341805152028776e-38
1.014509 -0.791104 -0.107738 2.341805152028776e-38
1.009041 -0.796463 -0.107630 2.341805152028776e-38
1.010534 -0.807405 -0.108273 2.341805152028776e-38
1.029754 -0.832806 -0.110830 2.341805152028776e-38
2.375447 -1.341907 -0.242198 2.341805152028776e-38
2.342939 -1.340639 -0.239631 2.341805152028776e-38
1.154884 -0.704265 -0.120082 2.341805152028776e-38
1.126313 -0.695592 -0.117520 2.341805152028776e-38
1.113080 -0.696128 -0.116546 2.341805152028776e-38
1.104084 -0.699202 -0.116011 2.341805152028776e-38
1.098443 -0.704348 -0.115826 2.341805152028776e-38
1.091944 -0.708911 -0.115549 2.341805152028776e-38
1.085379 -0.713497 -0.115281 2.341805152028776e-38
1.078797 -0.718032 -0.115010 2.341805152028776e-38
1.073025 -0.723073 -0.114823 2.341805152028776e-38
1.067230 -0.728071 -0.114633 2.341805152028776e-38
1.062233 -0.733594 -0.114527 2.341805152028776e-38
1.058793 -0.740292 -0.114606 2.341805152028776e-38
1.054494 -0.746405 -0.114593 2.341805152028776e-38
1.050159 -0.752494 -0.114577 2.341805152028776e-38
1.045790 -0.758558 -0.114558 2.341805152028776e-38
1.041385 -0.764597 -0.114535 2.341805152028776e-38
1.036898 -0.770673 -0.114518 2.341805152028776e-38
1.030778 -0.775534 -0.114322 2.341805152028776e-38
1.025428 -0.780954 -0.114211 2.341805152028776e-38
1.020051 -0.786338 -0.114096 2.341805152028776e-38
1.015431 -0.792299 -0.114066 2.341805152028776e-38
1.006822 -0.795204 -0.113601 2.341805152028776e-38
1.016098 -0.812353 -0.115161 2.341805152028776e-38
2.368877 -1.338963 -0.254730 2.341805152028776e-38
1.190513 -0.717330 -0.130120 2.341805152028776e-38
1.144838 -0.698564 -0.125548 2.341805152028776e-38
1.125632 -0.695593 -0.123873 2.341805152028776e-38
1.112404 -0.696125 -0.122846 2.341805152028776e-38
1.104253 -0.699728 -0.122374 2.341805152028776e-38
1.098610 -0.704876 -0.122178 2.341805152028776e-38
1.091266 -0.708910 -0.121795 2.341805152028776e-38
1.085534 -0.714039 -0.121605 2.341805152028776e-38
1.077294 -0.717472 -0.121132 2.341805152028776e-38
1.071526 -0.722504 -0.120934 2.341805152028776e-38
1.065735 -0.727494 -0.120733 2.341805152028776e-38
1.061556 -0.733581 -0.120716 2.341805152028776e-38
1.057296 -0.739710 -0.120706 2.341805152028776e-38
1.053813 -0.746390 -0.120785 2.341805152028776e-38
1.050288 -0.753055 -0.120861 2.341805152028776e-38
1.045915 -0.759120 -0.120840 2.341805152028776e-38
1.039901 -0.763984 -0.120629 2.341805152028776e-38
1.037009 -0.771248 -0.120798 2.341805152028776e-38
1.030886 -0.776111 -0.120591 2.341805152028776e-38
1.025534 -0.781532 -0.120473 2.341805152028776e-38
1.020153 -0.786917 -0.120352 2.341805152028776e-38
1.014745 -0.792267 -0.120227 2.341805152028776e-38
1.003787 -0.793326 -0.119458 2.341805152028776e-38
1.027838 -0.822276 -0.122869 2.341805152028776e-38
1.141339 -0.924223 -0.137052 2.341805152028776e-38
1.604284 -1.347197 -0.195318 2.341805152028776e-38
1.577974 -1.341319 -0.193031 2.341805152028776e-38
2.363108 -1.336508 -0.267302 2.341805152028776e-38
1.173576 -0.707560 -0.134930 2.341805152028776e-38
1.138166 -0.694938 -0.131302 2.341805152028776e-38
1.122376 -0.694022 -0.129931 2.341805152028776e-38
1.111693 -0.696121 -0.129145 2.341805152028776e-38
1.103544 -0.699720 -0.128648 2.341805152028776e-38
1.096228 -0.703789 -0.128246 2.341805152028776e-38
1.090553 -0.708907 -0.128041 2.341805152028776e-38
1.083159 -0.712939 -0.127644 2.341805152028776e-38
1.076584 -0.717462 -0.127342 2.341805152028776e-38
1.070817 -0.722490 -0.127133 2.341805152028776e-38
1.065028 -0.727477 -0.126922 2.341805152028776e-38
1.060840 -0.733573 -0.126905 2.341805152028776e-38
1.056580 -0.739698 -0.126894 2.341805152028776e-38
1.052284 -0.745798 -0.126879 2.341805152028776e-38
1.049571 -0.753035 -0.127055 2.341805152028776e-38
1.044393 -0.758512 -0.126935 2.341805152028776e-38
1.039978 -0.764557 -0.126910 2.341805152028776e-38
1.035486 -0.770634 -0.126892 2.341805152028776e-38
1.030162 -0.776087 -0.126771 2.341805152028776e-38
1.024811 -0.781504 -0.126647 2.341805152028776e-38
1.018643 -0.786278 -0.126421 2.341805152028776e-38
1.012448 -0.791016 -0.126193 2.341805152028776e-38
1.000720 -0.791446 -0.125287 2.341805152028776e-38
1.234840 -1.000623 -0.155991 2.341805152028776e-38
1.328926 -1.089975 -0.168638 2.341805152028776e-38
2.356407 -1.333562 -0.279723 2.341805152028776e-38
1.213478 -0.722893 -0.145936 2.341805152028776e-38
1.156623 -0.697789 -0.139558 2.341805152028776e-38
1.133163 -0.692348 -0.137193 2.341805152028776e-38
1.119087 -0.692451 -0.135961 2.341805152028776e-38
1.110104 -0.695588 -0.135341 2.341805152028776e-38
1.101961 -0.699179 -0.134819 2.341805152028776e-38
1.095486 -0.703776 -0.134499 2.341805152028776e-38
1.088969 -0.708362 -0.134183 2.341805152028776e-38
1.082412 -0.712932 -0.133869 2.341805152028776e-38
1.075838 -0.717451 -0.133551 2.341805152028776e-38
1.070073 -0.722475 -0.133332 2.341805152028776e-38
1.065927 -0.728581 -0.133315 2.341805152028776e-38
1.061725 -0.734695 -0.133299 2.341805152028776e-38
1.057458 -0.740825 -0.133287 2.341805152028776e-38
1.053156 -0.746931 -0.133270 2.341805152028776e-38
1.048010 -0.752433 -0.133147 2.341805152028776e-38
1.044446 -0.759071 -0.133225 2.341805152028776e-38
1.039217 -0.764540 -0.133098 2.341805152028776e-38
1.034725 -0.770613 -0.133078 2.341805152028776e-38
1.029402 -0.776061 -0.132951 2.341805152028776e-38
1.024051 -0.781475 -0.132820 2.341805152028776e-38
1.018672 -0.786853 -0.132685 2.341805152028776e-38
1.012466 -0.791603 -0.132447 2.341805152028776e-38
1.006979 -0.796973 -0.132316 2.341805152028776e-38
1.337426 -1.084532 -0.177319 2.341805152028776e-38
1.367117 -1.122106 -0.182078 2.341805152028776e-38
1.190442 -0.709652 -0.149926 2.341805152028776e-38
1.148167 -0.693156 -0.145079 2.341805152028776e-38
1.128129 -0.689757 -0.143037 2.341805152028776e-38
1.116611 -0.691402 -0.142069 2.341805152028776e-38
1.108480 -0.695053 -0.141527 2.341805152028776e-38
1.102861 -0.700234 -0.141303 2.341805152028776e-38
1.096382 -0.704837 -0.140967 2.341805152028776e-38
1.089018 -0.708900 -0.140531 2.341805152028776e-38
1.082460 -0.713471 -0.140202 2.341805152028776e-38
1.075885 -0.717990 -0.139868 2.341805152028776e-38
1.071765 -0.724129 -0.139853 2.341805152028776e-38
1.066789 -0.729683 -0.139727 2.341805152028776e-38
1.061753 -0.735250 -0.139604 2.341805152028776e-38
1.057483 -0.741381 -0.139590 2.341805152028776e-38
1.053178 -0.747487 -0.139572 2.341805152028776e-38
1.048837 -0.753570 -0.139550 2.341805152028776e-38
1.044461 -0.759628 -0.139524 2.341805152028776e-38
1.039221 -0.765110 -0.139393 2.341805152028776e-38
1.035522 -0.771778 -0.139478 2.341805152028776e-38
1.029400 -0.776633 -0.139237 2.341805152028776e-38
1.024046 -0.782047 -0.139099 2.341805152028776e-38
1.017091 -0.786209 -0.138743 2.341805152028776e-38
1.016361 -0.795251 -0.139246 2.341805152028776e-38
1.401355 -1.151075 -0.195466 2.341805152028776e-38
1.901951 -1.620297 -0.269053 2.341805152028776e-38
1.182761 -0.705573 -0.155690 2.341805152028776e-38
1.149040 -0.694176 -0.151750 2.341805152028776e-38
1.127304 -0.689758 -0.149395 2.341805152028776e-38
1.113258 -0.689829 -0.148046 2.341805152028776e-38
1.107663 -0.695046 -0.147815 2.341805152028776e-38
1.101207 -0.699690 -0.147468 2.341805152028776e-38
1.095569 -0.704821 -0.147229 2.341805152028776e-38
1.089030 -0.709438 -0.146888 2.341805152028776e-38
1.082470 -0.714009 -0.146543 2.341805152028776e-38
1.077547 -0.719632 -0.146419 2.341805152028776e-38
1.070948 -0.724111 -0.146065 2.341805152028776e-38
1.066793 -0.730222 -0.146044 2.341805152028776e-38
1.061744 -0.735803 -0.145919 2.341805152028776e-38
1.057471 -0.741934 -0.145903 2.341805152028776e-38
1.053973 -0.748617 -0.145996 2.341805152028776e-38
1.048819 -0.754125 -0.145860 2.341805152028776e-38
1.042833 -0.759014 -0.145607 2.341805152028776e-38
1.038387 -0.765090 -0.145584 2.341805152028776e-38
1.034687 -0.771753 -0.145672 2.341805152028776e-38
1.027773 -0.776005 -0.145308 2.341805152028776e-38
1.023214 -0.782013 -0.145275 2.341805152028776e-38
1.018619 -0.787996 -0.145238 2.341805152028776e-38
1.022560 -0.800735 -0.146438 2.341805152028776e-38
1.406313 -1.156057 -0.205037 2.341805152028776e-38
1.221722 -0.720146 -0.167238 2.341805152028776e-38
1.172495 -0.699966 -0.161025 2.341805152028776e-38
1.143916 -0.691612 -0.157623 2.341805152028776e-38
1.124749 -0.688722 -0.155518 2.341805152028776e-38
1.114092 -0.690872 -0.154579 2.341805152028776e-38
1.106811 -0.695038 -0.154103 2.341805152028776e-38
1.102033 -0.700743 -0.153975 2.341805152028776e-38
1.093878 -0.704277 -0.153376 2.341805152028776e-38
1.088173 -0.709431 -0.153137 2.341805152028776e-38
1.083273 -0.715092 -0.153011 2.341805152028776e-38
1.077518 -0.720169 -0.152763 2.341805152028776e-38
1.071741 -0.725204 -0.152511 2.341805152028776e-38
1.065940 -0.730200 -0.152255 2.341805152028776e-38
1.060883 -0.735789 -0.152125 2.341805152028776e-38
1.057422 -0.742487 -0.152225 2.341805152028776e-38
1.053110 -0.748594 -0.152204 2.341805152028776e-38
1.047957 -0.754098 -0.152061 2.341805152028776e-38
1.044381 -0.760736 -0.152147 2.341805152028776e-38
1.040714 -0.767425 -0.152242 2.341805152028776e-38
1.035408 -0.772914 -0.152100 2.341805152028776e-38
1.029282 -0.777770 -0.151836 2.341805152028776e-38
1.024712 -0.783788 -0.151801 2.341805152028776e-38
1.016180 -0.786740 -0.151177 2.341805152028776e-38
1.032617 -0.809280 -0.154299 2.341805152028776e-38
1.485110 -1.207144 -0.224905 2.341805152028776e-38
2.023241 -1.726479 -0.312168 2.341805152028776e-38
1.189140 -0.701483 -0.169553 2.341805152028776e-38
1.155390 -0.690285 -0.165280 2.341805152028776e-38
1.136214 -0.687506 -0.163083 2.341805152028776e-38
1.123007 -0.688203 -0.161743 2.341805152028776e-38
1.112359 -0.690343 -0.160765 2.341805152028776e-38
1.105083 -0.694500 -0.160269 2.341805152028776e-38
1.100309 -0.700195 -0.160134 2.341805152028776e-38
1.092984 -0.704274 -0.159635 2.341805152028776e-38
1.085617 -0.708339 -0.159142 2.341805152028776e-38
1.079068 -0.712891 -0.158766 2.341805152028776e-38
1.071677 -0.716841 -0.158264 2.341805152028776e-38
1.069208 -0.724070 -0.158487 2.341805152028776e-38
1.065860 -0.730751 -0.158588 2.341805152028776e-38
1.061616 -0.736906 -0.158575 2.341805152028776e-38
1.057336 -0.743037 -0.158556 2.341805152028776e-38
1.053021 -0.749145 -0.158533 2.341805152028776e-38
1.048671 -0.755228 -0.158505 2.341805152028776e-38
1.044279 -0.761296 -0.158474 2.341805152028776e-38
1.039805 -0.767400 -0.158451 2.341805152028776e-38
1.035295 -0.773479 -0.158423 2.341805152028776e-38
1.029958 -0.778934 -0.158269 2.341805152028776e-38
1.024593 -0.784353 -0.158111 2.341805152028776e-38
1.012922 -0.784875 -0.156975 2.341805152028776e-38
1.042619 -0.817822 -0.162292 2.341805152028776e-38
1.475400 -1.185813 -0.231711 2.341805152028776e-38
1.563828 -1.272218 -0.246704 2.341805152028776e-38
2.068884 -1.766981 -0.332531 2.341805152028776e-38
1.170239 -0.690887 -0.173540 2.341805152028776e-38
1.143383 -0.683657 -0.170112 2.341805152028776e-38
1.129337 -0.683913 -0.168592 2.341805152028776e-38
1.118694 -0.686126 -0.167579 2.341805152028776e-38
1.111434 -0.690337 -0.167068 2.341805152028776e-38
1.105840 -0.695544 -0.166805 2.341805152028776e-38
1.099387 -0.700179 -0.166410 2.341805152028776e-38
1.092888 -0.704808 -0.166021 2.341805152028776e-38
1.083029 -0.707246 -0.165128 2.341805152028776e-38
1.076488 -0.711784 -0.164736 2.341805152028776e-38
1.074053 -0.719030 -0.164972 2.341805152028776e-38
1.071569 -0.726273 -0.165204 2.341805152028776e-38
1.067378 -0.732423 -0.165185 2.341805152028776e-38
1.062310 -0.738021 -0.165043 2.341805152028776e-38
1.058835 -0.744727 -0.165149 2.341805152028776e-38
1.052894 -0.749694 -0.164870 2.341805152028776e-38
1.047736 -0.755197 -0.164714 2.341805152028776e-38
1.043333 -0.761275 -0.164684 2.341805152028776e-38
1.038859 -0.767374 -0.164659 2.341805152028776e-38
1.035939 -0.774636 -0.164882 2.341805152028776e-38
1.030596 -0.780095 -0.164721 2.341805152028776e-38
1.022862 -0.783709 -0.164176 2.341805152028776e-38
1.014325 -0.786668 -0.163504 2.341805152028776e-38
1.688495 -1.374862 -0.277063 2.341805152028776e-38
2.028898 -1.713456 -0.337595 2.341805152028776e-38
2.080426 -1.778464 -0.347818 2.341805152028776e-38
1.212474 -0.707329 -0.186139 2.341805152028776e-38
1.159865 -0.685333 -0.178641 2.341805152028776e-38
1.139865 -0.682118 -0.176134 2.341805152028776e-38
1.125824 -0.682373 -0.174561 2.341805152028776e-38
1.116886 -0.685605 -0.173771 2.341805152028776e-38
1.110473 -0.690329 -0.173370 2.341805152028776e-38
1.104042 -0.695003 -0.172965 2.341805152028776e-38
1.098430 -0.700162 -0.172686 2.341805152028776e-38
1.091089 -0.704265 -0.172154 2.341805152028776e-38
1.082068 -0.707235 -0.171357 2.341805152028776e-38
1.080490 -0.715051 -0.171737 2.341805152028776e-38
1.076386 -0.721217 -0.171718 2.341805152028776e-38
1.071428 -0.726804 -0.171563 2.341805152028776e-38
1.066405 -0.732409 -0.171415 2.341805152028776e-38
1.062151 -0.738568 -0.171398 2.341805152028776e-38
1.057862 -0.744704 -0.171375 2.341805152028776e-38
1.052730 -0.750240 -0.171217 2.341805152028776e-38
1.047570 -0.755743 -0.171053 2.341805152028776e-38
1.042351 -0.761252 -0.170893 2.341805152028776e-38
1.038674 -0.767935 -0.170998 2.341805152028776e-38
1.034162 -0.774009 -0.170966 2.341805152028776e-38
1.029613 -0.780057 -0.170929 2.341805152028776e-38
1.024243 -0.785476 -0.170756 2.341805152028776e-38
1.024302 -0.795145 -0.171502 2.341805152028776e-38
1.712183 -1.395440 -0.291822 2.341805152028776e-38
1.951842 -1.629970 -0.335762 2.341805152028776e-38
2.055608 -1.737663 -0.355284 2.341805152028776e-38
2.090354 -1.788650 -0.363010 2.341805152028776e-38
1.192596 -0.696336 -0.189910 2.341805152028776e-38
1.152029 -0.681291 -0.184045 2.341805152028776e-38
1.135453 -0.680088 -0.181995 2.341805152028776e-38
1.124821 -0.682374 -0.180908 2.341805152028776e-38
1.116731 -0.686119 -0.180225 2.341805152028776e-38
1.110318 -0.690843 -0.179808 2.341805152028776e-38
1.101372 -0.693933 -0.178978 2.341805152028776e-38
1.096599 -0.699616 -0.178825 2.341805152028776e-38
1.090087 -0.704258 -0.178412 2.341805152028776e-38
1.085216 -0.709935 -0.178266 2.341805152028776e-38
1.081968 -0.716675 -0.178386 2.341805152028776e-38
1.076210 -0.721747 -0.178093 2.341805152028776e-38
1.070430 -0.726777 -0.177795 2.341805152028776e-38
1.066212 -0.732955 -0.177780 2.341805152028776e-38
1.061955 -0.739113 -0.177761 2.341805152028776e-38
1.056853 -0.744678 -0.177601 2.341805152028776e-38
1.051722 -0.750209 -0.177435 2.341805152028776e-38
1.047366 -0.756287 -0.177401 2.341805152028776e-38
1.042132 -0.761811 -0.177238 2.341805152028776e-38
1.038452 -0.768494 -0.177345 2.341805152028776e-38
1.033936 -0.774567 -0.177311 2.341805152028776e-38
1.028595 -0.780016 -0.177135 2.341805152028776e-38
1.027941 -0.789050 -0.177770 2.341805152028776e-38
1.774909 -1.447951 -0.313814 2.341805152028776e-38
1.917508 -1.583434 -0.340588 2.341805152028776e-38
2.037211 -1.702940 -0.363549 2.341805152028776e-38
2.113190 -1.788101 -0.378891 2.341805152028776e-38
2.151348 -1.842654 -0.387569 2.341805152028776e-38
1.178698 -0.688839 -0.194457 2.341805152028776e-38
1.147578 -0.679264 -0.189936 2.341805152028776e-38
1.132710 -0.679075 -0.188101 2.341805152028776e-38
1.121243 -0.680832 -0.186833 2.341805152028776e-38
1.116540 -0.686632 -0.186688 2.341805152028776e-38
1.109285 -0.690831 -0.186114 2.341805152028776e-38
1.102019 -0.694972 -0.185536 2.341805152028776e-38
1.095559 -0.699613 -0.185099 2.341805152028776e-38
1.090712 -0.705325 -0.184952 2.341805152028776e-38
1.085836 -0.711006 -0.184799 2.341805152028776e-38
1.079281 -0.715562 -0.184359 2.341805152028776e-38
1.074353 -0.721171 -0.184195 2.341805152028776e-38
1.071024 -0.727874 -0.184311 2.341805152028776e-38
1.066797 -0.734060 -0.184296 2.341805152028776e-38
1.060909 -0.739091 -0.183993 2.341805152028776e-38
1.055808 -0.744650 -0.183826 2.341805152028776e-38
1.051483 -0.750751 -0.183794 2.341805152028776e-38
1.046320 -0.756251 -0.183617 2.341805152028776e-38
1.042674 -0.762953 -0.183732 2.341805152028776e-38
1.037395 -0.768461 -0.183560 2.341805152028776e-38
1.033672 -0.775123 -0.183664 2.341805152028776e-38
1.026751 -0.779374 -0.183199 2.341805152028776e-38
1.035518 -0.795636 -0.185544 2.341805152028776e-38
1.093313 -0.850385 -0.196756 2.341805152028776e-38
2.129150 -1.781613 -0.393690 2.341805152028776e-38
2.203052 -1.866041 -0.409280 2.341805152028776e-38
2.233922 -1.915332 -0.416991 2.341805152028776e-38
1.217399 -0.703036 -0.207175 2.341805152028776e-38
1.165640 -0.681839 -0.199006 2.341805152028776e-38
1.143947 -0.677739 -0.195934 2.341805152028776e-38
1.129085 -0.677551 -0.194040 2.341805152028776e-38
1.120171 -0.680830 -0.193166 2.341805152028776e-38
1.114626 -0.686105 -0.192868 2.341805152028776e-38
1.109057 -0.691342 -0.192565 2.341805152028776e-38
1.100954 -0.694954 -0.191820 2.341805152028776e-38
1.095317 -0.700141 -0.191518 2.341805152028776e-38
1.089638 -0.705315 -0.191219 2.341805152028776e-38
1.083935 -0.710448 -0.190913 2.341805152028776e-38
1.079034 -0.716088 -0.190748 2.341805152028776e-38
1.074104 -0.721696 -0.190578 2.341805152028776e-38
1.070758 -0.728417 -0.190701 2.341805152028776e-38
1.064898 -0.733479 -0.190392 2.341805152028776e-38
1.060638 -0.739632 -0.190369 2.341805152028776e-38
1.055535 -0.745190 -0.190195 2.341805152028776e-38
1.051207 -0.751291 -0.190161 2.341805152028776e-38
1.046830 -0.757387 -0.190126 2.341805152028776e-38
1.040783 -0.762339 -0.189807 2.341805152028776e-38
1.036303 -0.768426 -0.189773 2.341805152028776e-38
1.031787 -0.774488 -0.189734 2.341805152028776e-38
1.023297 -0.777532 -0.188962 2.341805152028776e-38
1.053228 -0.810069 -0.195313 2.341805152028776e-38
1.145212 -0.891673 -0.213302 2.341805152028776e-38
2.212458 -1.853279 -0.423408 2.341805152028776e-38
2.229234 -1.890213 -0.428636 2.341805152028776e-38
2.244144 -1.926127 -0.433556 2.341805152028776e-38
1.194828 -0.690664 -0.210202 2.341805152028776e-38
1.155129 -0.676336 -0.203872 2.341805152028776e-38
1.137730 -0.674707 -0.201453 2.341805152028776e-38
1.126277 -0.676535 -0.200102 2.341805152028776e-38
1.118218 -0.680312 -0.199347 2.341805152028776e-38
1.113519 -0.686096 -0.199189 2.341805152028776e-38
1.106274 -0.690280 -0.198574 2.341805152028776e-38
1.099854 -0.694934 -0.198103 2.341805152028776e-38
1.094205 -0.700135 -0.197796 2.341805152028776e-38
1.089357 -0.705840 -0.197635 2.341805152028776e-38
1.083653 -0.710973 -0.197318 2.341805152028776e-38
1.079573 -0.717159 -0.197297 2.341805152028776e-38
1.073817 -0.722219 -0.196969 2.341805152028776e-38
1.069637 -0.728401 -0.196950 2.341805152028776e-38
1.063779 -0.733458 -0.196629 2.341805152028776e-38
1.059519 -0.739604 -0.196604 2.341805152028776e-38
1.055224 -0.745728 -0.196573 2.341805152028776e-38
1.050894 -0.751828 -0.196536 2.341805152028776e-38
1.044898 -0.756781 -0.196202 2.341805152028776e-38
1.041248 -0.763476 -0.196322 2.341805152028776e-38
1.036761 -0.769567 -0.196286 2.341805152028776e-38
1.031449 -0.775039 -0.196094 2.341805152028776e-38
1.021386 -0.776885 -0.194995 2.341805152028776e-38
1.084953 -0.835363 -0.208015 2.341805152028776e-38
1.212548 -0.945109 -0.233498 2.341805152028776e-38
2.159273 -1.788742 -0.425248 2.341805152028776e-38
2.210637 -1.853776 -0.437408 2.341805152028776e-38
2.210794 -1.876623 -0.439506 2.341805152028776e-38
2.237004 -1.922093 -0.446833 2.341805152028776e-38
1.175682 -0.680270 -0.213611 2.341805152028776e-38
1.148008 -0.672829 -0.209253 2.341805152028776e-38
1.134027 -0.673201 -0.207384 2.341805152028776e-38
1.123437 -0.675517 -0.206144 2.341805152028776e-38
1.117075 -0.680306 -0.205674 2.341805152028776e-38
1.110696 -0.685047 -0.205198 2.341805152028776e-38
1.104298 -0.689739 -0.204717 2.341805152028776e-38
1.098709 -0.694924 -0.204389 2.341805152028776e-38
1.093057 -0.700127 -0.204073 2.341805152028776e-38
1.089867 -0.706901 -0.204216 2.341805152028776e-38
1.084985 -0.712580 -0.204043 2.341805152028776e-38
1.079251 -0.717680 -0.203708 2.341805152028776e-38
1.074313 -0.723292 -0.203524 2.341805152028776e-38
1.068480 -0.728383 -0.203197 2.341805152028776e-38
1.063437 -0.733995 -0.203020 2.341805152028776e-38
1.058364 -0.739575 -0.202837 2.341805152028776e-38
1.054069 -0.745693 -0.202803 2.341805152028776e-38
1.049739 -0.751787 -0.202764 2.341805152028776e-38
1.045331 -0.757912 -0.202734 2.341805152028776e-38
1.040081 -0.763442 -0.202546 2.341805152028776e-38
1.035594 -0.769527 -0.202507 2.341805152028776e-38
1.031072 -0.775587 -0.202462 2.341805152028776e-38
1.028087 -0.782819 -0.202722 2.341805152028776e-38
2.154403 -1.786721 -0.438252 2.341805152028776e-38
2.196624 -1.844101 -0.448938 2.341805152028776e-38
2.205860 -1.874543 -0.452957 2.341805152028776e-38
2.235782 -1.923206 -0.461286 2.341805152028776e-38
1.209952 -0.691834 -0.226112 2.341805152028776e-38
1.164223 -0.674327 -0.218260 2.341805152028776e-38
1.144270 -0.671318 -0.215207 2.341805152028776e-38
1.129444 -0.671188 -0.213126 2.341805152028776e-38
1.120564 -0.674497 -0.212166 2.341805152028776e-38
1.115054 -0.679785 -0.211840 2.341805152028776e-38
1.109520 -0.685034 -0.211508 2.341805152028776e-38
1.103125 -0.689720 -0.211010 2.341805152028776e-38
1.097523 -0.694920 -0.210677 2.341805152028776e-38
1.092704 -0.700649 -0.210509 2.341805152028776e-38
1.089511 -0.707423 -0.210655 2.341805152028776e-38
1.084626 -0.713100 -0.210474 2.341805152028776e-38
1.079712 -0.718746 -0.210288 2.341805152028776e-38
1.073937 -0.723828 -0.209942 2.341805152028776e-38
1.068102 -0.728920 -0.209603 2.341805152028776e-38
1.062245 -0.733969 -0.209259 2.341805152028776e-38
1.057982 -0.740109 -0.209229 2.341805152028776e-38
1.053684 -0.746225 -0.209193 2.341805152028776e-38
1.048545 -0.751748 -0.208992 2.341805152028776e-38
1.043327 -0.757301 -0.208803 2.341805152028776e-38
1.039672 -0.763989 -0.208928 2.341805152028776e-38
1.035183 -0.770073 -0.208886 2.341805152028776e-38
1.032235 -0.777319 -0.209158 2.341805152028776e-38
2.119836 -1.760098 -0.445006 2.341805152028776e-38
2.161396 -1.816635 -0.455860 2.341805152028776e-38
2.182050 -1.856463 -0.462390 2.341805152028776e-38
2.194076 -1.889522 -0.467151 2.341805152028776e-38
1.191553 -0.682032 -0.229562 2.341805152028776e-38
1.156162 -0.670360 -0.223453 2.341805152028776e-38
1.139648 -0.669310 -0.220968 2.341805152028776e-38
1.127376 -0.670687 -0.219324 2.341805152028776e-38
1.118504 -0.673985 -0.218333 2.341805152028776e-38
1.112999 -0.679261 -0.217996 2.341805152028776e-38
1.108308 -0.685018 -0.217817 2.341805152028776e-38
1.101916 -0.689699 -0.217302 2.341805152028776e-38
1.096301 -0.694914 -0.216964 2.341805152028776e-38
1.092313 -0.701170 -0.216954 2.341805152028776e-38
1.086635 -0.706329 -0.216608 2.341805152028776e-38
1.081758 -0.711991 -0.216420 2.341805152028776e-38
1.076851 -0.717622 -0.216227 2.341805152028776e-38
1.071887 -0.723261 -0.216039 2.341805152028776e-38
1.066872 -0.728897 -0.215854 2.341805152028776e-38
1.061828 -0.734502 -0.215662 2.341805152028776e-38
1.057562 -0.740640 -0.215629 2.341805152028776e-38
1.053261 -0.746755 -0.215590 2.341805152028776e-38
1.048906 -0.752871 -0.215552 2.341805152028776e-38
1.043683 -0.758427 -0.215356 2.341805152028776e-38
1.039226 -0.764534 -0.215318 2.341805152028776e-38
1.033151 -0.769438 -0.214944 2.341805152028776e-38
1.037293 -0.782017 -0.216704 2.341805152028776e-38
1.491822 -1.181082 -0.317100 2.341805152028776e-38
2.094373 -1.741039 -0.453327 2.341805152028776e-38
2.145792 -1.805679 -0.466636 2.341805152028776e-38
2.140189 -1.823027 -0.467616 2.341805152028776e-38
2.160603 -1.862921 -0.474323 2.341805152028776e-38
1.176574 -0.674187 -0.233499 2.341805152028776e-38
1.151489 -0.668370 -0.229248 2.341805152028776e-38
1.136684 -0.668318 -0.227036 2.341805152028776e-38
1.126120 -0.670687 -0.225681 2.341805152028776e-38
1.117254 -0.673979 -0.224660 2.341805152028776e-38
1.112591 -0.679763 -0.224480 2.341805152028776e-38
1.106223 -0.684481 -0.223955 2.341805152028776e-38
1.098161 -0.688113 -0.223087 2.341805152028776e-38
1.091715 -0.692794 -0.222572 2.341805152028776e-38
1.085252 -0.697426 -0.222050 2.341805152028776e-38
1.082076 -0.704158 -0.222201 2.341805152028776e-38
1.078858 -0.710880 -0.222346 2.341805152028776e-38
1.075598 -0.717589 -0.222484 2.341805152028776e-38
1.071436 -0.723794 -0.222465 2.341805152028776e-38
1.067232 -0.729985 -0.222442 2.341805152028776e-38
1.062183 -0.735593 -0.222243 2.341805152028776e-38
1.057104 -0.741169 -0.222038 2.341805152028776e-38
1.051996 -0.746712 -0.221827 2.341805152028776e-38
1.046825 -0.752266 -0.221622 2.341805152028776e-38
1.042404 -0.758391 -0.221587 2.341805152028776e-38
1.038741 -0.765076 -0.221716 2.341805152028776e-38
1.030294 -0.768211 -0.220822 2.341805152028776e-38
1.044659 -0.788493 -0.224831 2.341805152028776e-38
1.506198 -1.179412 -0.328385 2.341805152028776e-38
1.560976 -1.237316 -0.341826 2.341805152028776e-38
2.042629 -1.679462 -0.453391 2.341805152028776e-38
2.097677 -1.745936 -0.467779 2.341805152028776e-38
2.127126 -1.792177 -0.476571 2.341805152028776e-38
2.120847 -1.808776 -0.477409 2.341805152028776e-38
2.146518 -1.853075 -0.485492 2.341805152028776e-38
1.162442 -0.666831 -0.237457 2.341805152028776e-38
1.145085 -0.665389 -0.234654 2.341805152028776e-38
1.133687 -0.667324 -0.233084 2.341805152028776e-38
1.123983 -0.670181 -0.231864 2.341805152028776e-38
1.116811 -0.674480 -0.231160 2.341805152028776e-38
1.112147 -0.680263 -0.230973 2.341805152028776e-38
1.105778 -0.684979 -0.230431 2.341805152028776e-38
1.099371 -0.689679 -0.229893 2.341805152028776e-38
1.092088 -0.693839 -0.229187 2.341805152028776e-38
1.085622 -0.698474 -0.228649 2.341805152028776e-38
1.082438 -0.705210 -0.228802 2.341805152028776e-38
1.079213 -0.711935 -0.228948 2.341805152028776e-38
1.075937 -0.718660 -0.229092 2.341805152028776e-38
1.071763 -0.724876 -0.229073 2.341805152028776e-38
1.066740 -0.730514 -0.228874 2.341805152028776e-38
1.061688 -0.736120 -0.228667 2.341805152028776e-38
1.055802 -0.741129 -0.228280 2.341805152028776e-38
1.050695 -0.746666 -0.228061 2.341805152028776e-38
1.047109 -0.753384 -0.228203 2.341805152028776e-38
1.042681 -0.759511 -0.228166 2.341805152028776e-38
1.038217 -0.765614 -0.228122 2.341805152028776e-38
1.026616 -0.766391 -0.226504 2.341805152028776e-38
1.055110 -0.797339 -0.233758 2.341805152028776e-38
1.505734 -1.166149 -0.336478 2.341805152028776e-38
1.615047 -1.266209 -0.362483 2.341805152028776e-38
1.688512 -1.340061 -0.380640 2.341805152028776e-38
1.969677 -1.601793 -0.448011 2.341805152028776e-38
2.052799 -1.689965 -0.469078 2.341805152028776e-38
2.086513 -1.738846 -0.479003 2.341805152028776e-38
2.116703 -1.785655 -0.488213 2.341805152028776e-38
2.111955 -1.803474 -0.489418 2.341805152028776e-38
2.119692 -1.832299 -0.493571 2.341805152028776e-38
1.153422 -0.662412 -0.242346 2.341805152028776e-38
1.139503 -0.662906 -0.240183 2.341805152028776e-38
1.128963 -0.665329 -0.238754 2.341805152028776e-38
1.120967 -0.669169 -0.237856 2.341805152028776e-38
1.115489 -0.674470 -0.237489 2.341805152028776e-38
1.112503 -0.681273 -0.237654 2.341805152028776e-38
1.106968 -0.686512 -0.237274 2.341805152028776e-38
1.103871 -0.693335 -0.237444 2.341805152028776e-38
1.094081 -0.695939 -0.236178 2.341805152028776e-38
1.086779 -0.700053 -0.235444 2.341805152028776e-38
1.081937 -0.705722 -0.235241 2.341805152028776e-38
1.077887 -0.711902 -0.235210 2.341805152028776e-38
1.074594 -0.718643 -0.235363 2.341805152028776e-38
1.070420 -0.724853 -0.235342 2.341805152028776e-38
1.066210 -0.731040 -0.235313 2.341805152028776e-38
1.060348 -0.736083 -0.234920 2.341805152028776e-38
1.055268 -0.741651 -0.234700 2.341805152028776e-38
1.050948 -0.747774 -0.234657 2.341805152028776e-38
1.046553 -0.753923 -0.234623 2.341805152028776e-38
1.041327 -0.759469 -0.234404 2.341805152028776e-38
1.035281 -0.764397 -0.233999 2.341805152028776e-38
1.025272 -0.766336 -0.232693 2.341805152028776e-38
1.837979 -1.460534 -0.426226 2.341805152028776e-38
1.992134 -1.622170 -0.466141 2.341805152028776e-38
2.036283 -1.678555 -0.478675 2.341805152028776e-38
2.073026 -1.729857 -0.489582 2.341805152028776e-38
2.109227 -1.781665 -0.500468 2.341805152028776e-38
2.088041 -1.785374 -0.497781 2.341805152028776e-38
2.092107 -1.810875 -0.501165 2.341805152028776e-38
1.150349 -0.661420 -0.248436 2.341805152028776e-38
1.138130 -0.662913 -0.246591 2.341805152028776e-38
1.127598 -0.665329 -0.245121 2.341805152028776e-38
1.121294 -0.670171 -0.244565 2.341805152028776e-38
1.115812 -0.675475 -0.244186 2.341805152028776e-38
1.111982 -0.681768 -0.244168 2.341805152028776e-38
1.105605 -0.686495 -0.243595 2.341805152028776e-38
1.101665 -0.692803 -0.243588 2.341805152028776e-38
1.092714 -0.695923 -0.242471 2.341805152028776e-38
1.087067 -0.701096 -0.242083 2.341805152028776e-38
1.081398 -0.706230 -0.241688 2.341805152028776e-38
1.078165 -0.712951 -0.241838 2.341805152028776e-38
1.074032 -0.719170 -0.241817 2.341805152028776e-38
1.069854 -0.725378 -0.241793 2.341805152028776e-38
1.064831 -0.731007 -0.241577 2.341805152028776e-38
1.059778 -0.736605 -0.241356 2.341805152028776e-38
1.054697 -0.742170 -0.241127 2.341805152028776e-38
1.051157 -0.748883 -0.241272 2.341805152028776e-38
1.045161 -0.753884 -0.240868 2.341805152028776e-38
1.039143 -0.758844 -0.240457 2.341805152028776e-38
1.034683 -0.764929 -0.240406 2.341805152028776e-38
1.031762 -0.772168 -0.240716 2.341805152028776e-38
1.900038 -1.511816 -0.452957 2.341805152028776e-38
1.963771 -1.581681 -0.470229 2.341805152028776e-38
1.988542 -1.621415 -0.478348 2.341805152028776e-38
2.025795 -1.672145 -0.489563 2.341805152028776e-38
2.049685 -1.712668 -0.497643 2.341805152028776e-38
2.076164 -1.756082 -0.506436 2.341805152028776e-38
2.052160 -1.757040 -0.502945 2.341805152028776e-38
2.051883 -1.778500 -0.505330 2.341805152028776e-38
1.146393 -0.659935 -0.254317 2.341805152028776e-38
1.135023 -0.661928 -0.252620 2.341805152028776e-38
1.127888 -0.666326 -0.251865 2.341805152028776e-38
1.121581 -0.671170 -0.251291 2.341805152028776e-38
1.116096 -0.676477 -0.250900 2.341805152028776e-38
1.110586 -0.681745 -0.250502 2.341805152028776e-38
1.105029 -0.687009 -0.250109 2.341805152028776e-38
1.097762 -0.691222 -0.249345 2.341805152028776e-38
1.092138 -0.696433 -0.248951 2.341805152028776e-38
1.088141 -0.702669 -0.248928 2.341805152028776e-38
1.082465 -0.707811 -0.248520 2.341805152028776e-38
1.078394 -0.714010 -0.248488 2.341805152028776e-38
1.073431 -0.719694 -0.248279 2.341805152028776e-38
1.069250 -0.725900 -0.248251 2.341805152028776e-38
1.064225 -0.731527 -0.248029 2.341805152028776e-38
1.057558 -0.736001 -0.247422 2.341805152028776e-38
1.053284 -0.742121 -0.247374 2.341805152028776e-38
1.048927 -0.748278 -0.247339 2.341805152028776e-38
1.044529 -0.754418 -0.247299 2.341805152028776e-38
1.036924 -0.758215 -0.246498 2.341805152028776e-38
1.035626 -0.766626 -0.247198 2.341805152028776e-38
1.042910 -0.781529 -0.249963 2.341805152028776e-38
1.934191 -1.541049 -0.473708 2.341805152028776e-38
1.996847 -1.610536 -0.491244 2.341805152028776e-38
2.005418 -1.637424 -0.495619 2.341805152028776e-38
2.025851 -1.674489 -0.502983 2.341805152028776e-38
2.040638 -1.707450 -0.509013 2.341805152028776e-38
2.037114 -1.725417 -0.510517 2.341805152028776e-38
2.040136 -1.749186 -0.513701 2.341805152028776e-38
2.041362 -1.771876 -0.516525 2.341805152028776e-38
1.143247 -0.658953 -0.260367 2.341805152028776e-38
1.133580 -0.661930 -0.259016 2.341805152028776e-38
1.127293 -0.666820 -0.258433 2.341805152028776e-38
1.120986 -0.671663 -0.257842 2.341805152028776e-38
1.114662 -0.676458 -0.257245 2.341805152028776e-38
1.109154 -0.681720 -0.256834 2.341805152028776e-38
1.103582 -0.687002 -0.256438 2.341805152028776e-38
1.097149 -0.691731 -0.255846 2.341805152028776e-38
1.092352 -0.697467 -0.255633 2.341805152028776e-38
1.087525 -0.703174 -0.255413 2.341805152028776e-38
1.083490 -0.709388 -0.255380 2.341805152028776e-38
1.078574 -0.715076 -0.255159 2.341805152028776e-38
1.073606 -0.720763 -0.254942 2.341805152028776e-38
1.068608 -0.726419 -0.254718 2.341805152028776e-38
1.063581 -0.732044 -0.254487 2.341805152028776e-38
1.057719 -0.737076 -0.254056 2.341805152028776e-38
1.054228 -0.743780 -0.254203 2.341805152028776e-38
1.048259 -0.748810 -0.253781 2.341805152028776e-38
1.043859 -0.754948 -0.253738 2.341805152028776e-38
1.036255 -0.758743 -0.252914 2.341805152028776e-38
1.045984 -0.775331 -0.256334 2.341805152028776e-38
1.069681 -0.802662 -0.263221 2.341805152028776e-38
1.942855 -1.550073 -0.488545 2.341805152028776e-38
1.985469 -1.603619 -0.501518 2.341805152028776e-38
1.989497 -1.626714 -0.504842 2.341805152028776e-38
2.011460 -1.664936 -0.512775 2.341805152028776e-38
2.025515 -1.697182 -0.518761 2.341805152028776e-38
2.038506 -1.729026 -0.524536 2.341805152028776e-38
2.048150 -1.758598 -0.529541 2.341805152028776e-38
2.050041 -1.781984 -0.532623 2.341805152028776e-38
1.140911 -0.658470 -0.266600 2.341805152028776e-38
1.131254 -0.661435 -0.265213 2.341805152028776e-38
1.125816 -0.666812 -0.264811 2.341805152028776e-38
1.119513 -0.671648 -0.264203 2.341805152028776e-38
1.114030 -0.676945 -0.263786 2.341805152028776e-38
1.108510 -0.682222 -0.263369 2.341805152028776e-38
1.102099 -0.686992 -0.262766 2.341805152028776e-38
1.095669 -0.691713 -0.262156 2.341805152028776e-38
1.090873 -0.697443 -0.261936 2.341805152028776e-38
1.086048 -0.703143 -0.261708 2.341805152028776e-38
1.081193 -0.708812 -0.261473 2.341805152028776e-38
1.076263 -0.714512 -0.261253 2.341805152028776e-38
1.072927 -0.721281 -0.261425 2.341805152028776e-38
1.067117 -0.726383 -0.260995 2.341805152028776e-38
1.062091 -0.732001 -0.260756 2.341805152028776e-38
1.057036 -0.737588 -0.260510 2.341805152028776e-38
1.052722 -0.743746 -0.260468 2.341805152028776e-38
1.047553 -0.749339 -0.260231 2.341805152028776e-38
1.041561 -0.754324 -0.259788 2.341805152028776e-38
1.032385 -0.756948 -0.258546 2.341805152028776e-38
1.060207 -0.786952 -0.266600 2.341805152028776e-38
1.104152 -0.829697 -0.278805 2.341805152028776e-38
1.939922 -1.549915 -0.500556 2.341805152028776e-38
1.968707 -1.592380 -0.510299 2.341805152028776e-38
1.985675 -1.625935 -0.517060 2.341805152028776e-38
2.006085 -1.662884 -0.524788 2.341805152028776e-38
2.015609 -1.691319 -0.529734 2.341805152028776e-38
2.022622 -1.718028 -0.534069 2.341805152028776e-38
2.039697 -1.753938 -0.541178 2.341805152028776e-38
2.030505 -1.767620 -0.541374 2.341805152028776e-38
1.141931 -0.659944 -0.273635 2.341805152028776e-38
1.130584 -0.661926 -0.271805 2.341805152028776e-38
1.123461 -0.666302 -0.270984 2.341805152028776e-38
1.117165 -0.671126 -0.270359 2.341805152028776e-38
1.112523 -0.676920 -0.270133 2.341805152028776e-38
1.106987 -0.682216 -0.269713 2.341805152028776e-38
1.100579 -0.686978 -0.269093 2.341805152028776e-38
1.095809 -0.692739 -0.268871 2.341805152028776e-38
1.090183 -0.697943 -0.268440 2.341805152028776e-38
1.086178 -0.704173 -0.268407 2.341805152028776e-38
1.082941 -0.710939 -0.268577 2.341805152028776e-38
1.077996 -0.716656 -0.268351 2.341805152028776e-38
1.072209 -0.721796 -0.267916 2.341805152028776e-38
1.066398 -0.726896 -0.267472 2.341805152028776e-38
1.062176 -0.733067 -0.267428 2.341805152028776e-38
1.057116 -0.738656 -0.267173 2.341805152028776e-38
1.052777 -0.744840 -0.267137 2.341805152028776e-38
1.047603 -0.750435 -0.266891 2.341805152028776e-38
1.042400 -0.755997 -0.266638 2.341805152028776e-38
1.034011 -0.759208 -0.265566 2.341805152028776e-38
1.092422 -0.812003 -0.281715 2.341805152028776e-38
1.175249 -0.884401 -0.304349 2.341805152028776e-38
1.943003 -1.554678 -0.514193 2.341805152028776e-38
1.981593 -1.605176 -0.526795 2.341805152028776e-38
1.987841 -1.630117 -0.530881 2.341805152028776e-38
1.982557 -1.645811 -0.531916 2.341805152028776e-38
1.989903 -1.672217 -0.536371 2.341805152028776e-38
1.999974 -1.701326 -0.541621 2.341805152028776e-38
1.995560 -1.718592 -0.543050 2.341805152028776e-38
1.974769 -1.721712 -0.540020 2.341805152028776e-38
1.140369 -0.659944 -0.280074 2.341805152028776e-38
1.128188 -0.661425 -0.277990 2.341805152028776e-38
1.121073 -0.665789 -0.277146 2.341805152028776e-38
1.116459 -0.671609 -0.276919 2.341805152028776e-38
1.110978 -0.676895 -0.276478 2.341805152028776e-38
1.104596 -0.681693 -0.275848 2.341805152028776e-38
1.099853 -0.687481 -0.275626 2.341805152028776e-38
1.094254 -0.692716 -0.275188 2.341805152028776e-38
1.090278 -0.698968 -0.275159 2.341805152028776e-38
1.086267 -0.705200 -0.275123 2.341805152028776e-38
1.082187 -0.711456 -0.275096 2.341805152028776e-38
1.076426 -0.716628 -0.274655 2.341805152028776e-38
1.071452 -0.722308 -0.274414 2.341805152028776e-38
1.065641 -0.727405 -0.273958 2.341805152028776e-38
1.060611 -0.733017 -0.273702 2.341805152028776e-38
1.056338 -0.739180 -0.273654 2.341805152028776e-38
1.051993 -0.745365 -0.273615 2.341805152028776e-38
1.046818 -0.750956 -0.273361 2.341805152028776e-38
1.042404 -0.757090 -0.273306 2.341805152028776e-38
1.045048 -0.768416 -0.275112 2.341805152028776e-38
1.163733 -0.866252 -0.307608 2.341805152028776e-38
1.292174 -0.973831 -0.343009 2.341805152028776e-38
1.900809 -1.504623 -0.513342 2.341805152028776e-38
1.968896 -1.577787 -0.534115 2.341805152028776e-38
1.987516 -1.612415 -0.541622 2.341805152028776e-38
1.977817 -1.624354 -0.541451 2.341805152028776e-38
1.986855 -1.651876 -0.546438 2.341805152028776e-38
1.988148 -1.673270 -0.549338 2.341805152028776e-38
1.976544 -1.684011 -0.548723 2.341805152028776e-38
1.975930 -1.704333 -0.551216 2.341805152028776e-38
1.960402 -1.711844 -0.549559 2.341805152028776e-38
1.128729 -0.671265 -0.285850 2.341805152028776e-38
1.117389 -0.673097 -0.283913 2.341805152028776e-38
1.110215 -0.677400 -0.283045 2.341805152028776e-38
1.105495 -0.683222 -0.282822 2.341805152028776e-38
1.099088 -0.687979 -0.282167 2.341805152028776e-38
1.094314 -0.693735 -0.281929 2.341805152028776e-38
1.089510 -0.699461 -0.281684 2.341805152028776e-38
1.086313 -0.706227 -0.281858 2.341805152028776e-38
1.081394 -0.711969 -0.281623 2.341805152028776e-38
1.076445 -0.717681 -0.281382 2.341805152028776e-38
1.069847 -0.722269 -0.280707 2.341805152028776e-38
1.064845 -0.727910 -0.280450 2.341805152028776e-38
1.060617 -0.734076 -0.280398 2.341805152028776e-38
1.056319 -0.740265 -0.280356 2.341805152028776e-38
1.051171 -0.745885 -0.280100 2.341805152028776e-38
1.044406 -0.750334 -0.279413 2.341805152028776e-38
1.048689 -0.762779 -0.281690 2.341805152028776e-38
1.277061 -0.952053 -0.345848 2.341805152028776e-38
1.394639 -1.052645 -0.379293 2.341805152028776e-38
1.926065 -1.526922 -0.532926 2.341805152028776e-38
1.970232 -1.581307 -0.547612 2.341805152028776e-38
1.981199 -1.609782 -0.553168 2.341805152028776e-38
1.965478 -1.616721 -0.551296 2.341805152028776e-38
1.954252 -1.627285 -0.550678 2.341805152028776e-38
1.959410 -1.651636 -0.554701 2.341805152028776e-38
1.967975 -1.679379 -0.559793 2.341805152028776e-38
1.948882 -1.683679 -0.557054 2.341805152028776e-38
1.940846 -1.697465 -0.557470 2.341805152028776e-38
1.106081 -0.675865 -0.288750 2.341805152028776e-38
1.102201 -0.682179 -0.288736 2.341805152028776e-38
1.098285 -0.688475 -0.288715 2.341805152028776e-38
1.093510 -0.694227 -0.288469 2.341805152028776e-38
1.088704 -0.699951 -0.288215 2.341805152028776e-38
1.083846 -0.705675 -0.287966 2.341805152028776e-38
1.079747 -0.711942 -0.287941 2.341805152028776e-38
1.074800 -0.717646 -0.287691 2.341805152028776e-38
1.069823 -0.723320 -0.287433 2.341805152028776e-38
1.065621 -0.729514 -0.287384 2.341805152028776e-38
1.060578 -0.735135 -0.287113 2.341805152028776e-38
1.054659 -0.740224 -0.286640 2.341805152028776e-38
1.049513 -0.745837 -0.286376 2.341805152028776e-38
1.041960 -0.749707 -0.285453 2.341805152028776e-38
1.055701 -0.769037 -0.290383 2.341805152028776e-38
1.393102 -1.040174 -0.386350 2.341805152028776e-38
1.512292 -1.143215 -0.421185 2.341805152028776e-38
1.877348 -1.472479 -0.529627 2.341805152028776e-38
1.943478 -1.543174 -0.550701 2.341805152028776e-38
1.965392 -1.579926 -0.559429 2.341805152028776e-38
1.958159 -1.593584 -0.559908 2.341805152028776e-38
1.946314 -1.603493 -0.559072 2.341805152028776e-38
1.951664 -1.627705 -0.563198 2.341805152028776e-38
1.949323 -1.645757 -0.565147 2.341805152028776e-38
1.951926 -1.668396 -0.568629 2.341805152028776e-38
1.938084 -1.677076 -0.567338 2.341805152028776e-38
1.935959 -1.695948 -0.569488 2.341805152028776e-38
1.109004 -0.696224 -0.298382 2.341805152028776e-38
1.095957 -0.696809 -0.295905 2.341805152028776e-38
1.088679 -0.700965 -0.294976 2.341805152028776e-38
1.082979 -0.706185 -0.294508 2.341805152028776e-38
1.078877 -0.712448 -0.294479 2.341805152028776e-38
1.073928 -0.718149 -0.294220 2.341805152028776e-38
1.068949 -0.723820 -0.293953 2.341805152028776e-38
1.063137 -0.728908 -0.293457 2.341805152028776e-38
1.057277 -0.733987 -0.292965 2.341805152028776e-38
1.053761 -0.740740 -0.293144 2.341805152028776e-38
1.048613 -0.746350 -0.292871 2.341805152028776e-38
1.036315 -0.746797 -0.290595 2.341805152028776e-38
1.653594 -1.252011 -0.471405 2.341805152028776e-38
1.750630 -1.341916 -0.501198 2.341805152028776e-38
1.827395 -1.418077 -0.525423 2.341805152028776e-38
1.886446 -1.481948 -0.544748 2.341805152028776e-38
1.923350 -1.529671 -0.557880 2.341805152028776e-38
1.941494 -1.563245 -0.565688 2.341805152028776e-38
1.950988 -1.590320 -0.571042 2.341805152028776e-38
1.943679 -1.603916 -0.571510 2.341805152028776e-38
1.942265 -1.622488 -0.573731 2.341805152028776e-38
1.939157 -1.639900 -0.575512 2.341805152028776e-38
