VERSION .7
FIELDS x y z rgb
SIZE 4 4 4 4
TYPE F F F F
COUNT 1 1 1 1
WIDTH 972
HEIGHT 1
VIEWPOINT 0 0 0 1 0 0 0
POINTS 972
DATA ascii
1.274127 0.236241 0.223641 2.341805152028776e-38
1.275256 0.230008 0.223706 2.341805152028776e-38
1.277325 0.223940 0.223940 2.341805152028776e-38
1.285193 0.218849 0.225193 2.341805152028776e-38
1.294988 0.214008 0.226785 2.341805152028776e-38
1.305738 0.209233 0.228547 2.341805152028776e-38
1.263644 0.292254 0.216834 2.341805152028776e-38
1.241965 0.280825 0.212933 2.341805152028776e-38
1.235615 0.273021 0.211668 2.341805152028776e-38
1.233075 0.266120 0.211061 2.341805152028776e-38
1.235320 0.260276 0.211283 2.341805152028776e-38
1.236565 0.254236 0.211353 2.341805152028776e-38
1.237782 0.248190 0.211421 2.341805152028776e-38
1.237033 0.241759 0.211157 2.341805152028776e-38
1.245939 0.237186 0.212544 2.341805152028776e-38
1.246103 0.230915 0.212442 2.341805152028776e-38
1.244294 0.224297 0.212007 2.341805152028776e-38
1.241479 0.217533 0.211405 2.341805152028776e-38
1.242518 0.211463 0.211463 2.341805152028776e-38
1.244500 0.205549 0.211685 2.341805152028776e-38
1.246454 0.199621 0.211906 2.341805152028776e-38
1.252278 0.194283 0.212787 2.341805152028776e-38
1.260031 0.189186 0.213998 2.341805152028776e-38
1.268739 0.184160 0.215374 2.341805152028776e-38
1.277429 0.179053 0.216748 2.341805152028776e-38
1.283167 0.173469 0.217624 2.341805152028776e-38
1.282458 0.303056 0.213734 2.341805152028776e-38
1.241604 0.286977 0.206747 2.341805152028776e-38
1.228546 0.277616 0.204399 2.341805152028776e-38
1.225066 0.270520 0.203650 2.341805152028776e-38
1.225404 0.264301 0.203542 2.341805152028776e-38
1.228601 0.258719 0.203931 2.341805152028776e-38
1.229839 0.252714 0.203998 2.341805152028776e-38
1.230080 0.246510 0.203904 2.341805152028776e-38
1.232228 0.240688 0.204128 2.341805152028776e-38
1.238226 0.235589 0.204993 2.341805152028776e-38
1.239352 0.229538 0.205054 2.341805152028776e-38
1.237535 0.222957 0.204632 2.341805152028776e-38
1.235683 0.216399 0.204208 2.341805152028776e-38
1.234770 0.210030 0.203942 2.341805152028776e-38
1.235772 0.203997 0.203997 2.341805152028776e-38
1.237719 0.198114 0.204210 2.341805152028776e-38
1.238664 0.192067 0.204261 2.341805152028776e-38
1.241531 0.186308 0.204633 2.341805152028776e-38
1.244372 0.180525 0.205003 2.341805152028776e-38
1.248163 0.174856 0.205532 2.341805152028776e-38
1.248995 0.168758 0.205577 2.341805152028776e-38
1.267141 0.299255 0.204753 2.341805152028776e-38
1.233935 0.285031 0.199215 2.341805152028776e-38
1.227601 0.277233 0.198024 2.341805152028776e-38
1.225080 0.270357 0.197452 2.341805152028776e-38
1.225410 0.264161 0.197362 2.341805152028776e-38
1.227640 0.258379 0.197584 2.341805152028776e-38
1.226941 0.251985 0.197338 2.341805152028776e-38
1.227178 0.245798 0.197245 2.341805152028776e-38
1.227384 0.239615 0.197152 2.341805152028776e-38
1.233382 0.234543 0.197991 2.341805152028776e-38
1.235474 0.228699 0.198206 2.341805152028776e-38
1.232678 0.221965 0.197640 2.341805152028776e-38
1.230819 0.215433 0.197228 2.341805152028776e-38
1.231847 0.209422 0.197282 2.341805152028776e-38
1.230897 0.203085 0.197022 2.341805152028776e-38
1.231866 0.197073 0.197073 2.341805152028776e-38
1.233781 0.191209 0.197279 2.341805152028776e-38
1.234692 0.185184 0.197327 2.341805152028776e-38
1.241439 0.180005 0.198310 2.341805152028776e-38
1.242296 0.173942 0.198355 2.341805152028776e-38
1.241166 0.167611 0.198086 2.341805152028776e-38
1.255616 0.296358 0.196532 2.341805152028776e-38
1.233928 0.284860 0.192970 2.341805152028776e-38
1.228552 0.277283 0.191965 2.341805152028776e-38
1.224091 0.269995 0.191120 2.341805152028776e-38
1.224418 0.263811 0.191035 2.341805152028776e-38
1.225680 0.257833 0.191100 2.341805152028776e-38
1.224977 0.251452 0.190861 2.341805152028776e-38
1.225211 0.245278 0.190772 2.341805152028776e-38
1.233175 0.240622 0.191888 2.341805152028776e-38
1.233354 0.234417 0.191796 2.341805152028776e-38
1.231558 0.227857 0.191400 2.341805152028776e-38
1.228755 0.221145 0.190851 2.341805152028776e-38
1.227864 0.214806 0.190603 2.341805152028776e-38
1.228889 0.208812 0.190655 2.341805152028776e-38
1.229886 0.202814 0.190706 2.341805152028776e-38
1.229877 0.196655 0.190604 2.341805152028776e-38
1.229838 0.190500 0.190500 2.341805152028776e-38
1.229768 0.184351 0.190395 2.341805152028776e-38
1.239450 0.179624 0.191802 2.341805152028776e-38
1.239326 0.173438 0.191694 2.341805152028776e-38
1.237212 0.166992 0.191282 2.341805152028776e-38
1.251745 0.295275 0.189598 2.341805152028776e-38
1.231962 0.284243 0.186439 2.341805152028776e-38
1.225610 0.276468 0.185324 2.341805152028776e-38
1.224036 0.269848 0.184952 2.341805152028776e-38
1.224361 0.263667 0.184870 2.341805152028776e-38
1.226591 0.257896 0.185078 2.341805152028776e-38
1.225887 0.251513 0.184847 2.341805152028776e-38
1.228060 0.245726 0.185053 2.341805152028776e-38
1.236031 0.241059 0.186134 2.341805152028776e-38
1.234268 0.234474 0.185752 2.341805152028776e-38
1.230525 0.227553 0.185076 2.341805152028776e-38
1.227718 0.220848 0.184544 2.341805152028776e-38
1.228772 0.214858 0.184597 2.341805152028776e-38
1.229798 0.208863 0.184647 2.341805152028776e-38
1.229818 0.202702 0.184550 2.341805152028776e-38
1.229808 0.196546 0.184451 2.341805152028776e-38
1.228790 0.190244 0.184204 2.341805152028776e-38
1.232631 0.184689 0.184689 2.341805152028776e-38
1.239385 0.179526 0.185612 2.341805152028776e-38
1.240239 0.173480 0.185654 2.341805152028776e-38
1.237143 0.166901 0.185108 2.341805152028776e-38
1.248800 0.294417 0.182848 2.341805152028776e-38
1.231892 0.284068 0.180215 2.341805152028776e-38
1.225527 0.276315 0.179149 2.341805152028776e-38
1.224917 0.269911 0.178930 2.341805152028776e-38
1.225241 0.263729 0.178851 2.341805152028776e-38
1.227472 0.257957 0.179052 2.341805152028776e-38
1.227737 0.251771 0.178970 2.341805152028776e-38
1.229912 0.245978 0.179169 2.341805152028776e-38
1.236918 0.241116 0.180074 2.341805152028776e-38
1.234180 0.234345 0.179563 2.341805152028776e-38
1.233353 0.227966 0.179333 2.341805152028776e-38
1.236391 0.222302 0.179668 2.341805152028776e-38
1.238428 0.216443 0.179861 2.341805152028776e-38
1.234581 0.209575 0.179202 2.341805152028776e-38
1.231674 0.202911 0.178683 2.341805152028776e-38
1.230687 0.196592 0.178446 2.341805152028776e-38
1.229667 0.190289 0.178207 2.341805152028776e-38
1.233511 0.184732 0.178675 2.341805152028776e-38
1.239289 0.179427 0.179427 2.341805152028776e-38
1.239163 0.173247 0.179325 2.341805152028776e-38
1.236063 0.166675 0.178797 2.341805152028776e-38
1.246784 0.293783 0.176270 2.341805152028776e-38
1.231785 0.283908 0.174008 2.341805152028776e-38
1.228313 0.276813 0.173389 2.341805152028776e-38
1.226736 0.270186 0.173040 2.341805152028776e-38
1.227061 0.263997 0.172964 2.341805152028776e-38
1.227355 0.257812 0.172885 2.341805152028776e-38
1.228588 0.251828 0.172942 2.341805152028776e-38
1.229793 0.245839 0.172998 2.341805152028776e-38
1.236803 0.240981 0.173872 2.341805152028776e-38
1.235035 0.234398 0.173515 2.341805152028776e-38
1.240051 0.229098 0.174114 2.341805152028776e-38
1.243096 0.223403 0.174438 2.341805152028776e-38
1.239284 0.216492 0.173803 2.341805152028776e-38
1.236410 0.209788 0.173303 2.341805152028776e-38
1.231547 0.202796 0.172528 2.341805152028776e-38
1.230558 0.196481 0.172299 2.341805152028776e-38
1.230515 0.190332 0.172205 2.341805152028776e-38
1.233382 0.184628 0.172521 2.341805152028776e-38
1.239163 0.179325 0.173247 2.341805152028776e-38
1.240016 0.173286 0.173286 2.341805152028776e-38
1.236914 0.166713 0.172776 2.341805152028776e-38
1.246662 0.293606 0.169982 2.341805152028776e-38
1.235510 0.284638 0.168334 2.341805152028776e-38
1.228170 0.276656 0.167210 2.341805152028776e-38
1.227559 0.270245 0.167006 2.341805152028776e-38
1.225945 0.263638 0.166668 2.341805152028776e-38
1.226237 0.257461 0.166592 2.341805152028776e-38
1.226498 0.251287 0.166515 2.341805152028776e-38
1.228672 0.245505 0.166701 2.341805152028776e-38
1.236657 0.240845 0.167677 2.341805152028776e-38
1.234886 0.234265 0.167332 2.341805152028776e-38
1.237955 0.228608 0.167646 2.341805152028776e-38
1.238072 0.222401 0.167562 2.341805152028776e-38
1.235228 0.215687 0.167081 2.341805152028776e-38
1.235280 0.209503 0.166995 2.341805152028776e-38
1.233346 0.203002 0.166643 2.341805152028776e-38
1.233335 0.196837 0.166554 2.341805152028776e-38
1.232314 0.190525 0.166331 2.341805152028776e-38
1.236163 0.184961 0.166768 2.341805152028776e-38
1.240968 0.179507 0.167337 2.341805152028776e-38
1.242804 0.173598 0.167507 2.341805152028776e-38
1.241665 0.167279 0.167279 2.341805152028776e-38
1.248435 0.293895 0.163963 2.341805152028776e-38
1.234377 0.284253 0.161993 2.341805152028776e-38
1.228965 0.276715 0.161164 2.341805152028776e-38
1.228353 0.270303 0.160967 2.341805152028776e-38
1.227707 0.263903 0.160768 2.341805152028776e-38
1.227029 0.257515 0.160568 2.341805152028776e-38
1.228261 0.251539 0.160621 2.341805152028776e-38
1.230437 0.245751 0.160800 2.341805152028776e-38
1.235506 0.240516 0.161359 2.341805152028776e-38
1.237631 0.234684 0.161536 2.341805152028776e-38
1.235826 0.228116 0.161202 2.341805152028776e-38
1.235940 0.221922 0.161122 2.341805152028776e-38
1.235045 0.215562 0.160912 2.341805152028776e-38
1.235096 0.209381 0.160829 2.341805152028776e-38
1.234138 0.203045 0.160617 2.341805152028776e-38
1.234127 0.196878 0.160531 2.341805152028776e-38
1.235065 0.190868 0.160572 2.341805152028776e-38
1.236956 0.185000 0.160738 2.341805152028776e-38
1.240781 0.179403 0.161158 2.341805152028776e-38
1.241635 0.173361 0.161195 2.341805152028776e-38
1.241477 0.167182 0.161103 2.341805152028776e-38
1.245350 0.293046 0.157319 2.341805152028776e-38
1.234180 0.284088 0.155790 2.341805152028776e-38
1.229731 0.276771 0.155114 2.341805152028776e-38
1.227179 0.269931 0.154680 2.341805152028776e-38
1.228471 0.263956 0.154733 2.341805152028776e-38
1.230705 0.258179 0.154908 2.341805152028776e-38
1.230969 0.251988 0.154836 2.341805152028776e-38
1.231201 0.245801 0.154764 2.341805152028776e-38
1.237247 0.240755 0.155424 2.341805152028776e-38
1.237423 0.234547 0.155349 2.341805152028776e-38
1.237568 0.228343 0.155273 2.341805152028776e-38
1.235728 0.221792 0.154951 2.341805152028776e-38
1.234832 0.215435 0.154749 2.341805152028776e-38
1.234882 0.209258 0.154669 2.341805152028776e-38
1.234901 0.203086 0.154588 2.341805152028776e-38
1.235869 0.197075 0.154628 2.341805152028776e-38
1.235828 0.190907 0.154544 2.341805152028776e-38
1.236738 0.184891 0.154581 2.341805152028776e-38
1.239583 0.179155 0.154863 2.341805152028776e-38
1.241418 0.173259 0.155021 2.341805152028776e-38
1.242242 0.167216 0.155055 2.341805152028776e-38
1.298737 0.312158 0.157688 2.341805152028776e-38
1.245130 0.292876 0.151062 2.341805152028776e-38
1.232983 0.283698 0.149476 2.341805152028776e-38
1.230467 0.276826 0.149060 2.341805152028776e-38
1.229853 0.270411 0.148878 2.341805152028776e-38
1.230176 0.264217 0.148812 2.341805152028776e-38
1.230469 0.258026 0.148744 2.341805152028776e-38
1.229758 0.251640 0.148558 2.341805152028776e-38
1.230961 0.245655 0.148606 2.341805152028776e-38
1.236035 0.240423 0.149123 2.341805152028776e-38
1.238160 0.234593 0.149286 2.341805152028776e-38
1.235375 0.227847 0.148860 2.341805152028776e-38
1.233531 0.221309 0.148550 2.341805152028776e-38
1.233610 0.215136 0.148474 2.341805152028776e-38
1.234637 0.209133 0.148515 2.341805152028776e-38
1.235634 0.203126 0.148555 2.341805152028776e-38
1.236603 0.197113 0.148593 2.341805152028776e-38
1.236562 0.190944 0.148512 2.341805152028776e-38
1.237471 0.184928 0.148548 2.341805152028776e-38
1.242283 0.179474 0.149055 2.341805152028776e-38
1.243137 0.173430 0.149089 2.341805152028776e-38
1.241010 0.166984 0.148768 2.341805152028776e-38
1.290789 0.310128 0.150268 2.341805152028776e-38
1.241977 0.292021 0.144474 2.341805152028776e-38
1.232724 0.283529 0.143289 2.341805152028776e-38
1.231174 0.276878 0.143003 2.341805152028776e-38
1.229588 0.270248 0.142715 2.341805152028776e-38
1.228939 0.263849 0.142539 2.341805152028776e-38
1.229229 0.257667 0.142475 2.341805152028776e-38
1.229489 0.251488 0.142409 2.341805152028776e-38
1.231666 0.245701 0.142567 2.341805152028776e-38
1.238693 0.240848 0.143289 2.341805152028776e-38
1.239845 0.234822 0.143333 2.341805152028776e-38
1.235104 0.227710 0.142698 2.341805152028776e-38
1.232280 0.221000 0.142288 2.341805152028776e-38
1.234314 0.215177 0.142441 2.341805152028776e-38
1.233382 0.208841 0.142254 2.341805152028776e-38
1.235359 0.203003 0.142405 2.341805152028776e-38
1.236327 0.196994 0.142442 2.341805152028776e-38
1.237266 0.190980 0.142477 2.341805152028776e-38
1.239159 0.185109 0.142625 2.341805152028776e-38
1.242007 0.179366 0.142885 2.341805152028776e-38
1.242860 0.173325 0.142917 2.341805152028776e-38
1.242700 0.167148 0.142835 2.341805152028776e-38
1.282801 0.308094 0.142930 2.341805152028776e-38
1.239758 0.291392 0.138028 2.341805152028776e-38
1.234372 0.283803 0.137324 2.341805152028776e-38
1.231851 0.276928 0.136942 2.341805152028776e-38
1.229293 0.270084 0.136559 2.341805152028776e-38
1.230586 0.264105 0.136606 2.341805152028776e-38
1.230878 0.257917 0.136544 2.341805152028776e-38
1.231138 0.251732 0.136481 2.341805152028776e-38
1.234292 0.246134 0.136741 2.341805152028776e-38
1.239372 0.240891 0.137216 2.341805152028776e-38
1.239547 0.234679 0.137150 2.341805152028776e-38
1.236758 0.227931 0.136759 2.341805152028776e-38
1.236868 0.221742 0.136690 2.341805152028776e-38
1.234989 0.215215 0.136404 2.341805152028776e-38
1.234056 0.208879 0.136225 2.341805152028776e-38
1.235052 0.202878 0.136261 2.341805152028776e-38
1.236020 0.196873 0.136297 2.341805152028776e-38
1.236958 0.190863 0.136331 2.341805152028776e-38
1.244750 0.185877 0.137122 2.341805152028776e-38
1.245636 0.179825 0.137154 2.341805152028776e-38
1.244522 0.173494 0.136969 2.341805152028776e-38
1.244362 0.167310 0.136890 2.341805152028776e-38
1.278641 0.306986 0.136087 2.341805152028776e-38
1.242348 0.291897 0.132122 2.341805152028776e-38
1.234053 0.283629 0.131140 2.341805152028776e-38
1.230559 0.276539 0.130672 2.341805152028776e-38
1.229940 0.270130 0.130512 2.341805152028776e-38
1.231233 0.264151 0.130557 2.341805152028776e-38
1.232497 0.258166 0.130601 2.341805152028776e-38
1.231784 0.251776 0.130438 2.341805152028776e-38
1.234939 0.246177 0.130686 2.341805152028776e-38
1.239045 0.240743 0.131037 2.341805152028776e-38
1.240196 0.234720 0.131077 2.341805152028776e-38
1.239361 0.228331 0.130910 2.341805152028776e-38
1.237515 0.221780 0.130638 2.341805152028776e-38
1.237594 0.215594 0.130571 2.341805152028776e-38
1.238623 0.209578 0.130607 2.341805152028776e-38
1.237660 0.203235 0.130435 2.341805152028776e-38
1.238630 0.197220 0.130468 2.341805152028776e-38
1.241536 0.191503 0.130708 2.341805152028776e-38
1.249334 0.186496 0.131464 2.341805152028776e-38
1.249238 0.180282 0.131392 2.341805152028776e-38
1.246156 0.173661 0.131007 2.341805152028776e-38
1.244024 0.167207 0.130725 2.341805152028776e-38
1.276382 0.306340 0.129484 2.341805152028776e-38
1.243942 0.292173 0.126096 2.341805152028776e-38
1.233703 0.283453 0.124963 2.341805152028776e-38
1.232148 0.276803 0.124713 2.341805152028776e-38
1.234445 0.271028 0.124856 2.341805152028776e-38
1.234770 0.264821 0.124801 2.341805152028776e-38
1.233115 0.258208 0.124547 2.341805152028776e-38
1.234350 0.252216 0.124588 2.341805152028776e-38
1.241413 0.247384 0.125219 2.341805152028776e-38
1.242596 0.241352 0.125258 2.341805152028776e-38
1.239838 0.234573 0.124903 2.341805152028776e-38
1.234108 0.227287 0.124250 2.341805152028776e-38
1.234215 0.221115 0.124188 2.341805152028776e-38
1.237231 0.215459 0.124420 2.341805152028776e-38
1.239241 0.209613 0.124553 2.341805152028776e-38
1.238277 0.203269 0.124388 2.341805152028776e-38
1.239247 0.197252 0.124421 2.341805152028776e-38
1.243137 0.191686 0.124748 2.341805152028776e-38
1.250940 0.186674 0.125469 2.341805152028776e-38
1.250844 0.180453 0.125400 2.341805152028776e-38
1.244804 0.173415 0.124737 2.341805152028776e-38
1.244643 0.167234 0.124666 2.341805152028776e-38
1.271184 0.304995 0.122627 2.341805152028776e-38
1.240660 0.291308 0.119590 2.341805152028776e-38
1.233323 0.283275 0.118793 2.341805152028776e-38
1.232737 0.276846 0.118648 2.341805152028776e-38
1.233090 0.270644 0.118597 2.341805152028776e-38
1.234385 0.264653 0.118638 2.341805152028776e-38
1.234678 0.258453 0.118584 2.341805152028776e-38
1.235914 0.252454 0.118623 2.341805152028776e-38
1.245910 0.248201 0.119504 2.341805152028776e-38
1.244165 0.241579 0.119261 2.341805152028776e-38
1.242385 0.234980 0.119016 2.341805152028776e-38
1.241549 0.228584 0.118864 2.341805152028776e-38
1.238721 0.221851 0.118523 2.341805152028776e-38
1.237819 0.215492 0.118369 2.341805152028776e-38
1.238848 0.209480 0.118402 2.341805152028776e-38
1.238865 0.203301 0.118339 2.341805152028776e-38
1.240817 0.197439 0.118464 2.341805152028776e-38
1.243727 0.191716 0.118681 2.341805152028776e-38
1.252518 0.186850 0.119461 2.341805152028776e-38
1.252422 0.180624 0.119395 2.341805152028776e-38
1.250323 0.174129 0.119141 2.341805152028776e-38
1.248192 0.167658 0.118885 2.341805152028776e-38
1.268857 0.304343 0.116090 2.341805152028776e-38
1.242194 0.291579 0.113562 2.341805152028776e-38
1.233883 0.283317 0.112717 2.341805152028776e-38
1.232324 0.276670 0.112492 2.341805152028776e-38
1.232676 0.270471 0.112443 2.341805152028776e-38
1.234945 0.264693 0.112571 2.341805152028776e-38
1.235237 0.258491 0.112520 2.341805152028776e-38
1.239402 0.253090 0.112823 2.341805152028776e-38
1.248427 0.248627 0.113570 2.341805152028776e-38
1.252549 0.243134 0.113873 2.341805152028776e-38
1.253712 0.237051 0.113907 2.341805152028776e-38
1.248967 0.229880 0.113408 2.341805152028776e-38
1.243202 0.222586 0.112818 2.341805152028776e-38
1.241321 0.216037 0.112583 2.341805152028776e-38
1.240388 0.209677 0.112435 2.341805152028776e-38
1.239423 0.203331 0.112287 2.341805152028776e-38
1.241376 0.197469 0.112405 2.341805152028776e-38
1.243302 0.191592 0.112523 2.341805152028776e-38
1.252096 0.186731 0.113263 2.341805152028776e-38
1.251999 0.180509 0.113200 2.341805152028776e-38
1.248912 0.173880 0.112869 2.341805152028776e-38
1.248752 0.167683 0.112805 2.341805152028776e-38
1.269404 0.304386 0.109830 2.341805152028776e-38
1.243699 0.291848 0.107523 2.341805152028776e-38
1.237328 0.284026 0.106891 2.341805152028776e-38
1.236743 0.277581 0.106762 2.341805152028776e-38
1.237099 0.271363 0.106716 2.341805152028776e-38
1.236450 0.264939 0.106585 2.341805152028776e-38
1.236742 0.258732 0.106537 2.341805152028776e-38
1.241886 0.253524 0.106908 2.341805152028776e-38
1.249939 0.248857 0.107531 2.341805152028776e-38
1.253086 0.243168 0.107733 2.341805152028776e-38
1.253269 0.236899 0.107681 2.341805152028776e-38
1.246561 0.229372 0.107040 2.341805152028776e-38
1.242753 0.222442 0.106650 2.341805152028776e-38
1.241851 0.216067 0.106512 2.341805152028776e-38
1.240918 0.209706 0.106373 2.341805152028776e-38
1.240935 0.203521 0.106317 2.341805152028776e-38
1.242890 0.197653 0.106429 2.341805152028776e-38
1.244817 0.191771 0.106540 2.341805152028776e-38
1.250658 0.186463 0.106987 2.341805152028776e-38
1.251546 0.180392 0.107012 2.341805152028776e-38
1.252405 0.174316 0.107036 2.341805152028776e-38
1.249284 0.167707 0.106722 2.341805152028776e-38
1.267012 0.303729 0.103331 2.341805152028776e-38
1.244205 0.291887 0.101392 2.341805152028776e-38
1.237830 0.284064 0.100797 2.341805152028776e-38
1.238218 0.277837 0.100754 2.341805152028776e-38
1.236627 0.271186 0.100552 2.341805152028776e-38
1.235976 0.264765 0.100428 2.341805152028776e-38
1.238219 0.258970 0.100541 2.341805152028776e-38
1.241412 0.253359 0.100733 2.341805152028776e-38
1.249467 0.248695 0.101320 2.341805152028776e-38
1.249678 0.242441 0.101273 2.341805152028776e-38
1.246919 0.235635 0.100986 2.341805152028776e-38
1.244123 0.228861 0.100699 2.341805152028776e-38
1.243254 0.222472 0.100569 2.341805152028776e-38
1.243335 0.216267 0.100518 2.341805152028776e-38
1.243384 0.210066 0.100467 2.341805152028776e-38
1.243402 0.203871 0.100414 2.341805152028776e-38
1.244375 0.197836 0.100440 2.341805152028776e-38
1.245318 0.191797 0.100465 2.341805152028776e-38
1.251162 0.186488 0.100887 2.341805152028776e-38
1.252050 0.180416 0.100911 2.341805152028776e-38
1.250934 0.174065 0.100774 2.341805152028776e-38
1.250774 0.167861 0.100717 2.341805152028776e-38
1.263618 0.302838 0.096783 2.341805152028776e-38
1.240797 0.291013 0.094962 2.341805152028776e-38
1.237332 0.283876 0.094625 2.341805152028776e-38
1.236745 0.277435 0.094511 2.341805152028776e-38
1.235151 0.270793 0.094321 2.341805152028776e-38
1.236448 0.264799 0.094354 2.341805152028776e-38
1.239667 0.259207 0.094534 2.341805152028776e-38
1.241885 0.253390 0.094640 2.341805152028776e-38
1.247987 0.248337 0.095043 2.341805152028776e-38
1.248196 0.242091 0.094998 2.341805152028776e-38
1.247393 0.235664 0.094878 2.341805152028776e-38
1.246558 0.229251 0.094757 2.341805152028776e-38
1.244708 0.222675 0.094561 2.341805152028776e-38
1.243806 0.216294 0.094438 2.341805152028776e-38
1.244839 0.210259 0.094464 2.341805152028776e-38
1.244858 0.204057 0.094415 2.341805152028776e-38
1.244846 0.197861 0.094364 2.341805152028776e-38
1.245790 0.191821 0.094388 2.341805152028776e-38
1.252621 0.186658 0.094859 2.341805152028776e-38
1.255484 0.180865 0.095031 2.341805152028776e-38
1.254370 0.174499 0.094903 2.341805152028776e-38
1.251246 0.167882 0.094625 2.341805152028776e-38
1.262131 0.302409 0.090411 2.341805152028776e-38
1.242213 0.291275 0.088915 2.341805152028776e-38
1.238747 0.284133 0.088601 2.341805152028776e-38
1.239135 0.277904 0.088563 2.341805152028776e-38
1.238517 0.271465 0.088455 2.341805152028776e-38
1.238841 0.265248 0.088416 2.341805152028776e-38
1.240110 0.259237 0.088446 2.341805152028776e-38
1.239396 0.252822 0.088335 2.341805152028776e-38
1.246475 0.247977 0.088782 2.341805152028776e-38
1.246682 0.241740 0.088740 2.341805152028776e-38
1.244897 0.235137 0.088558 2.341805152028776e-38
1.245039 0.228917 0.088515 2.341805152028776e-38
1.242205 0.222175 0.088261 2.341805152028776e-38
1.242283 0.215978 0.088216 2.341805152028776e-38
1.245281 0.210284 0.088380 2.341805152028776e-38
1.244316 0.203920 0.088264 2.341805152028776e-38
1.245288 0.197884 0.088287 2.341805152028776e-38
1.248204 0.192147 0.088449 2.341805152028776e-38
1.255039 0.186974 0.088889 2.341805152028776e-38
1.257904 0.181171 0.089050 2.341805152028776e-38
1.255803 0.174657 0.088860 2.341805152028776e-38
1.252679 0.168035 0.088600 2.341805152028776e-38
1.262554 0.302442 0.084185 2.341805152028776e-38
1.247487 0.292446 0.083116 2.341805152028776e-38
1.243052 0.285056 0.082758 2.341805152028776e-38
1.240522 0.278153 0.082529 2.341805152028776e-38
1.237955 0.271281 0.082299 2.341805152028776e-38
1.240230 0.265485 0.082392 2.341805152028776e-38
1.239547 0.259062 0.082290 2.341805152028776e-38
1.240786 0.253049 0.082317 2.341805152028776e-38
1.245912 0.247810 0.082603 2.341805152028776e-38
1.245137 0.241387 0.082499 2.341805152028776e-38
1.244330 0.234977 0.082395 2.341805152028776e-38
1.242509 0.228401 0.082224 2.341805152028776e-38
1.243600 0.222375 0.082248 2.341805152028776e-38
1.243679 0.216172 0.082206 2.341805152028776e-38
1.245695 0.210307 0.082294 2.341805152028776e-38
1.246698 0.204265 0.082316 2.341805152028776e-38
1.247672 0.198219 0.082337 2.341805152028776e-38
1.251576 0.192623 0.082553 2.341805152028776e-38
1.256442 0.187142 0.082833 2.341805152028776e-38
1.258321 0.181190 0.082918 2.341805152028776e-38
1.255229 0.174538 0.082676 2.341805152028776e-38
1.253093 0.168053 0.082499 2.341805152028776e-38
1.261005 0.302008 0.077837 2.341805152028776e-38
1.244959 0.291792 0.076787 2.341805152028776e-38
1.242465 0.284862 0.076576 2.341805152028776e-38
1.240907 0.278181 0.076423 2.341805152028776e-38
1.241264 0.271950 0.076390 2.341805152028776e-38
1.240614 0.265513 0.076297 2.341805152028776e-38
1.241885 0.259496 0.076322 2.341805152028776e-38
1.243126 0.253474 0.076348 2.341805152028776e-38
1.250213 0.248614 0.076733 2.341805152028776e-38
1.249442 0.242171 0.076636 2.341805152028776e-38
1.245695 0.235186 0.076359 2.341805152028776e-38
1.244856 0.228785 0.076262 2.341805152028776e-38
1.244966 0.222573 0.076224 2.341805152028776e-38
1.244062 0.216194 0.076125 2.341805152028776e-38
1.245094 0.210162 0.076146 2.341805152028776e-38
1.248067 0.204447 0.076286 2.341805152028776e-38
1.250028 0.198552 0.076366 2.341805152028776e-38
1.256894 0.193402 0.076747 2.341805152028776e-38
1.254853 0.186867 0.076585 2.341805152028776e-38
1.255743 0.180782 0.076603 2.341805152028776e-38
1.254626 0.174419 0.076499 2.341805152028776e-38
1.250509 0.167672 0.076215 2.341805152028776e-38
1.255541 0.300641 0.071286 2.341805152028776e-38
1.243371 0.291364 0.070541 2.341805152028776e-38
1.241847 0.284666 0.070401 2.341805152028776e-38
1.241262 0.278208 0.070316 2.341805152028776e-38
1.241619 0.271975 0.070286 2.341805152028776e-38
1.242921 0.265955 0.070310 2.341805152028776e-38
1.244194 0.259929 0.070334 2.341805152028776e-38
1.246416 0.254096 0.070412 2.341805152028776e-38
1.252528 0.249026 0.070711 2.341805152028776e-38
1.250778 0.242384 0.070567 2.341805152028776e-38
1.248994 0.235764 0.070423 2.341805152028776e-38
1.247174 0.229167 0.070278 2.341805152028776e-38
1.247286 0.222945 0.070243 2.341805152028776e-38
1.244416 0.216215 0.070041 2.341805152028776e-38
1.247417 0.210514 0.070171 2.341805152028776e-38
1.249407 0.204628 0.070245 2.341805152028776e-38
1.252355 0.198884 0.070374 2.341805152028776e-38
1.257250 0.193420 0.070614 2.341805152028776e-38
1.256197 0.187031 0.070520 2.341805152028776e-38
1.254123 0.180515 0.070370 2.341805152028776e-38
1.252015 0.174023 0.070220 2.341805152028776e-38
1.250863 0.167688 0.070124 2.341805152028776e-38
1.255871 0.300667 0.065093 2.341805152028776e-38
1.243698 0.291389 0.064412 2.341805152028776e-38
1.242173 0.284690 0.064285 2.341805152028776e-38
1.241588 0.278232 0.064207 2.341805152028776e-38
1.241945 0.271999 0.064180 2.341805152028776e-38
1.243247 0.265978 0.064202 2.341805152028776e-38
1.243542 0.259747 0.064173 2.341805152028776e-38
1.248699 0.254517 0.064396 2.341805152028776e-38
1.254815 0.249437 0.064669 2.341805152028776e-38
1.252086 0.242595 0.064487 2.341805152028776e-38
1.250301 0.235970 0.064355 2.341805152028776e-38
1.249464 0.229548 0.064273 2.341805152028776e-38
1.247611 0.222964 0.064140 2.341805152028776e-38
1.247692 0.216746 0.064108 2.341805152028776e-38
1.247742 0.210532 0.064075 2.341805152028776e-38
1.248746 0.204484 0.064092 2.341805152028776e-38
1.252681 0.198901 0.064260 2.341805152028776e-38
1.258564 0.193589 0.064530 2.341805152028776e-38
1.256523 0.187047 0.064393 2.341805152028776e-38
1.254448 0.180530 0.064257 2.341805152028776e-38
1.254318 0.174313 0.064220 2.341805152028776e-38
1.254158 0.168101 0.064184 2.341805152028776e-38
1.302249 0.318398 0.061107 2.341805152028776e-38
1.257142 0.300923 0.058944 2.341805152028776e-38
1.244968 0.291640 0.058328 2.341805152028776e-38
1.244417 0.285159 0.058258 2.341805152028776e-38
1.242859 0.278472 0.058142 2.341805152028776e-38
1.243216 0.272234 0.058117 2.341805152028776e-38
1.243543 0.265999 0.058092 2.341805152028776e-38
1.246772 0.260380 0.058203 2.341805152028776e-38
1.249975 0.254736 0.058313 2.341805152028776e-38
1.252174 0.248873 0.058378 2.341805152028776e-38
1.251402 0.242424 0.058304 2.341805152028776e-38
1.250598 0.235988 0.058231 2.341805152028776e-38
1.249761 0.229566 0.058157 2.341805152028776e-38
1.248890 0.223158 0.058082 2.341805152028776e-38
1.247003 0.216592 0.057961 2.341805152028776e-38
1.248037 0.210548 0.057977 2.341805152028776e-38
1.251999 0.204984 0.058130 2.341805152028776e-38
1.253964 0.199073 0.058191 2.341805152028776e-38
1.257875 0.193452 0.058343 2.341805152028776e-38
1.257808 0.187209 0.058311 2.341805152028776e-38
1.255733 0.180687 0.058187 2.341805152028776e-38
1.253625 0.174189 0.058063 2.341805152028776e-38
1.255444 0.168246 0.058121 2.341805152028776e-38
1.294765 0.316522 0.054352 2.341805152028776e-38
1.253526 0.300014 0.052580 2.341805152028776e-38
1.244262 0.291432 0.052151 2.341805152028776e-38
1.244684 0.285179 0.052129 2.341805152028776e-38
1.244100 0.278710 0.052067 2.341805152028776e-38
1.242507 0.272039 0.051963 2.341805152028776e-38
1.242832 0.265809 0.051940 2.341805152028776e-38
1.246060 0.260194 0.052039 2.341805152028776e-38
1.248285 0.254355 0.052097 2.341805152028776e-38
1.251461 0.248695 0.052195 2.341805152028776e-38
1.251670 0.242441 0.052171 2.341805152028776e-38
1.251847 0.236190 0.052146 2.341805152028776e-38
1.250027 0.229582 0.052039 2.341805152028776e-38
1.246206 0.222646 0.051849 2.341805152028776e-38
1.247269 0.216607 0.051864 2.341805152028776e-38
1.250274 0.210896 0.051960 2.341805152028776e-38
1.251280 0.204837 0.051974 2.341805152028776e-38
1.255217 0.199244 0.052110 2.341805152028776e-38
1.261105 0.193921 0.052328 2.341805152028776e-38
1.260052 0.187516 0.052259 2.341805152028776e-38
1.257978 0.180984 0.052148 2.341805152028776e-38
1.255871 0.174476 0.052037 2.341805152028776e-38
1.254720 0.168126 0.051966 2.341805152028776e-38
1.295983 0.316779 0.047997 2.341805152028776e-38
1.264456 0.302591 0.046792 2.341805152028776e-38
1.255203 0.293957 0.046414 2.341805152028776e-38
1.247844 0.285866 0.046107 2.341805152028776e-38
1.242387 0.278290 0.045872 2.341805152028776e-38
1.244696 0.272484 0.045924 2.341805152028776e-38
1.245023 0.266244 0.045904 2.341805152028776e-38
1.246298 0.260211 0.045920 2.341805152028776e-38
1.254397 0.255568 0.046187 2.341805152028776e-38
1.253659 0.249101 0.046130 2.341805152028776e-38
1.252888 0.242646 0.046072 2.341805152028776e-38
1.254048 0.236575 0.046086 2.341805152028776e-38
1.251247 0.229777 0.045955 2.341805152028776e-38
1.248410 0.223012 0.045824 2.341805152028776e-38
1.247506 0.216621 0.045765 2.341805152028776e-38
1.251496 0.211075 0.045886 2.341805152028776e-38
1.255462 0.205496 0.046007 2.341805152028776e-38
1.256442 0.199413 0.046018 2.341805152028776e-38
1.261343 0.193933 0.046175 2.341805152028776e-38
1.262267 0.187822 0.046186 2.341805152028776e-38
1.259205 0.181137 0.046052 2.341805152028776e-38
1.256108 0.174487 0.045918 2.341805152028776e-38
1.255947 0.168269 0.045891 2.341805152028776e-38
1.302026 0.318221 0.041787 2.341805152028776e-38
1.278277 0.305864 0.040992 2.341805152028776e-38
1.260279 0.295113 0.040384 2.341805152028776e-38
1.250001 0.286328 0.040024 2.341805152028776e-38
1.247471 0.279398 0.039914 2.341805152028776e-38
1.246856 0.272926 0.039866 2.341805152028776e-38
1.245231 0.266258 0.039786 2.341805152028776e-38
1.246505 0.260225 0.039799 2.341805152028776e-38
1.257544 0.256181 0.040125 2.341805152028776e-38
1.253868 0.249114 0.039981 2.341805152028776e-38
1.254078 0.242849 0.039963 2.341805152028776e-38
1.257203 0.237144 0.040037 2.341805152028776e-38
1.254404 0.230331 0.039924 2.341805152028776e-38
1.250585 0.223375 0.039779 2.341805152028776e-38
1.248697 0.216804 0.039696 2.341805152028776e-38
1.253674 0.211419 0.039833 2.341805152028776e-38
1.254683 0.205346 0.039843 2.341805152028776e-38
1.257637 0.199581 0.039916 2.341805152028776e-38
1.260564 0.193792 0.039989 2.341805152028776e-38
1.260499 0.187538 0.039967 2.341805152028776e-38
1.260402 0.181290 0.039945 2.341805152028776e-38
1.259285 0.174909 0.039892 2.341805152028776e-38
1.257145 0.168411 0.039806 2.341805152028776e-38
1.301241 0.317998 0.035333 2.341805152028776e-38
1.270682 0.304018 0.034476 2.341805152028776e-38
1.250726 0.292848 0.033909 2.341805152028776e-38
1.248231 0.285895 0.033816 2.341805152028776e-38
1.247650 0.279411 0.033775 2.341805152028776e-38
1.246058 0.272725 0.033708 2.341805152028776e-38
1.245409 0.266271 0.033666 2.341805152028776e-38
1.250597 0.261054 0.033783 2.341805152028776e-38
1.257723 0.256193 0.033953 2.341805152028776e-38
1.253066 0.248931 0.033805 2.341805152028776e-38
1.254256 0.242861 0.033816 2.341805152028776e-38
1.256400 0.236970 0.033853 2.341805152028776e-38
1.252616 0.229981 0.033731 2.341805152028776e-38
1.250762 0.223386 0.033661 2.341805152028776e-38
1.249859 0.216985 0.033617 2.341805152028776e-38
1.253852 0.211429 0.033706 2.341805152028776e-38
1.255848 0.205517 0.033742 2.341805152028776e-38
1.255841 0.199277 0.033724 2.341805152028776e-38
1.259755 0.193649 0.033812 2.341805152028776e-38
1.261666 0.187694 0.033846 2.341805152028776e-38
1.260581 0.181298 0.033801 2.341805152028776e-38
1.258473 0.174780 0.033729 2.341805152028776e-38
1.259305 0.168684 0.033737 2.341805152028776e-38
1.291685 0.315638 0.028694 2.341805152028776e-38
1.261111 0.301704 0.027993 2.341805152028776e-38
1.250875 0.292859 0.027745 2.341805152028776e-38
1.247406 0.285683 0.027647 2.341805152028776e-38
1.248774 0.279641 0.027657 2.341805152028776e-38
1.247183 0.272950 0.027602 2.341805152028776e-38
1.250445 0.267326 0.027654 2.341805152028776e-38
1.253682 0.261677 0.027707 2.341805152028776e-38
1.258853 0.256402 0.027803 2.341805152028776e-38
1.255176 0.249330 0.027703 2.341805152028776e-38
1.254405 0.242870 0.027669 2.341805152028776e-38
1.255566 0.236794 0.027677 2.341805152028776e-38
1.253748 0.230171 0.027620 2.341805152028776e-38
1.252879 0.223746 0.027585 2.341805152028776e-38
1.251977 0.217335 0.027550 2.341805152028776e-38
1.254001 0.211437 0.027579 2.341805152028776e-38
1.254023 0.205202 0.027564 2.341805152028776e-38
1.256976 0.199441 0.027615 2.341805152028776e-38
1.260892 0.193809 0.027687 2.341805152028776e-38
1.259837 0.187407 0.027650 2.341805152028776e-38
1.260730 0.181305 0.027657 2.341805152028776e-38
1.257632 0.174649 0.027576 2.341805152028776e-38
1.258462 0.168558 0.027582 2.341805152028776e-38
1.286952 0.314461 0.022235 2.341805152028776e-38
1.257342 0.300783 0.021706 2.341805152028776e-38
1.250995 0.292868 0.021580 2.341805152028776e-38
1.250448 0.286362 0.021554 2.341805152028776e-38
1.250844 0.280086 0.021545 2.341805152028776e-38
1.251209 0.273813 0.021536 2.341805152028776e-38
1.251542 0.267544 0.021526 2.341805152028776e-38
1.254780 0.261890 0.021567 2.341805152028776e-38
1.257993 0.256211 0.021608 2.341805152028776e-38
1.259218 0.250117 0.021615 2.341805152028776e-38
1.257469 0.243448 0.021571 2.341805152028776e-38
1.258633 0.237357 0.021578 2.341805152028776e-38
1.255834 0.230539 0.021517 2.341805152028776e-38
1.253982 0.223929 0.021473 2.341805152028776e-38
1.255051 0.217855 0.021479 2.341805152028776e-38
1.257077 0.211943 0.021501 2.341805152028776e-38
1.258088 0.205854 0.021507 2.341805152028776e-38
1.258083 0.199604 0.021496 2.341805152028776e-38
1.260023 0.193663 0.021518 2.341805152028776e-38
1.260945 0.187560 0.021523 2.341805152028776e-38
1.260849 0.181311 0.021511 2.341805152028776e-38
1.258741 0.174792 0.021466 2.341805152028776e-38
1.259572 0.168696 0.021470 2.341805152028776e-38
1.281216 0.313044 0.015810 2.341805152028776e-38
1.258404 0.301022 0.015517 2.341805152028776e-38
1.253031 0.293331 0.015438 2.341805152028776e-38
1.252487 0.286815 0.015420 2.341805152028776e-38
1.253861 0.280748 0.015426 2.341805152028776e-38
1.254229 0.274461 0.015419 2.341805152028776e-38
1.252609 0.267759 0.015388 2.341805152028776e-38
1.253891 0.261692 0.015394 2.341805152028776e-38
1.261022 0.256816 0.015471 2.341805152028776e-38
1.261269 0.250513 0.015464 2.341805152028776e-38
1.256577 0.243264 0.015396 2.341805152028776e-38
1.256757 0.236992 0.015389 2.341805152028776e-38
1.257890 0.230905 0.015394 2.341805152028776e-38
1.257024 0.224461 0.015374 2.341805152028776e-38
1.257111 0.218202 0.015366 2.341805152028776e-38
1.259138 0.212280 0.015383 2.341805152028776e-38
1.258178 0.205859 0.015363 2.341805152028776e-38
1.259159 0.199765 0.015367 2.341805152028776e-38
1.263077 0.194123 0.015407 2.341805152028776e-38
1.264002 0.188006 0.015410 2.341805152028776e-38
1.261928 0.181458 0.015378 2.341805152028776e-38
1.259820 0.174934 0.015345 2.341805152028776e-38
1.261643 0.168965 0.015360 2.341805152028776e-38
1.277392 0.312100 0.009458 2.341805152028776e-38
1.256519 0.300562 0.009296 2.341805152028776e-38
1.250170 0.292652 0.009242 2.341805152028776e-38
1.251572 0.286596 0.009245 2.341805152028776e-38
1.250993 0.280097 0.009234 2.341805152028776e-38
1.249404 0.273397 0.009216 2.341805152028776e-38
1.248757 0.266927 0.009204 2.341805152028776e-38
1.252971 0.261491 0.009229 2.341805152028776e-38
1.258142 0.256221 0.009261 2.341805152028776e-38
1.257406 0.249738 0.009250 2.341805152028776e-38
1.256637 0.243267 0.009238 2.341805152028776e-38
1.259765 0.237552 0.009255 2.341805152028776e-38
1.259917 0.231270 0.009251 2.341805152028776e-38
1.256099 0.224289 0.009217 2.341805152028776e-38
1.256185 0.218035 0.009213 2.341805152028776e-38
1.257226 0.211951 0.009215 2.341805152028776e-38
1.256263 0.205539 0.009203 2.341805152028776e-38
1.259219 0.199769 0.009220 2.341805152028776e-38
1.263136 0.194126 0.009244 2.341805152028776e-38
1.263072 0.187862 0.009239 2.341805152028776e-38
1.260998 0.181318 0.009220 2.341805152028776e-38
1.259880 0.174936 0.009207 2.341805152028776e-38
1.263685 0.169233 0.009231 2.341805152028776e-38
1.280336 0.312814 0.003160 2.341805152028776e-38
1.258494 0.301029 0.003103 2.341805152028776e-38
1.253121 0.293338 0.003088 2.341805152028776e-38
1.248678 0.285929 0.003075 2.341805152028776e-38
1.246144 0.279007 0.003066 2.341805152028776e-38
1.245526 0.272544 0.003062 2.341805152028776e-38
1.247809 0.266720 0.003066 2.341805152028776e-38
1.251043 0.261085 0.003072 2.341805152028776e-38
1.261111 0.256822 0.003094 2.341805152028776e-38
1.260378 0.250324 0.003090 2.341805152028776e-38
1.257648 0.243459 0.003082 2.341805152028776e-38
1.255864 0.236812 0.003075 2.341805152028776e-38
1.256012 0.230550 0.003074 2.341805152028776e-38
1.257113 0.224467 0.003075 2.341805152028776e-38
1.258185 0.218378 0.003076 2.341805152028776e-38
1.258242 0.212119 0.003074 2.341805152028776e-38
1.259254 0.206025 0.003075 2.341805152028776e-38
1.261224 0.200084 0.003078 2.341805152028776e-38
1.264155 0.194279 0.003084 2.341805152028776e-38
1.263102 0.187863 0.003080 2.341805152028776e-38
1.262017 0.181462 0.003076 2.341805152028776e-38
1.261890 0.175213 0.003074 2.341805152028776e-38
1.264706 0.169367 0.003079 2.341805152028776e-38
1.283251 0.313526 -0.003167 2.341805152028776e-38
1.258494 0.301029 -0.003103 2.341805152028776e-38
1.252147 0.293110 -0.003085 2.341805152028776e-38
1.248678 0.285929 -0.003075 2.341805152028776e-38
1.247120 0.279225 -0.003068 2.341805152028776e-38
1.246503 0.272757 -0.003065 2.341805152028776e-38
1.249765 0.267138 -0.003071 2.341805152028776e-38
1.253980 0.261698 -0.003079 2.341805152028776e-38
1.260132 0.256622 -0.003092 2.341805152028776e-38
1.258417 0.249934 -0.003086 2.341805152028776e-38
1.256666 0.243269 -0.003079 2.341805152028776e-38
1.254881 0.236627 -0.003073 2.341805152028776e-38
1.257979 0.230911 -0.003079 2.341805152028776e-38
1.258098 0.224642 -0.003077 2.341805152028776e-38
1.258185 0.218378 -0.003076 2.341805152028776e-38
1.259228 0.212285 -0.003077 2.341805152028776e-38
1.259254 0.206025 -0.003075 2.341805152028776e-38
1.266162 0.200867 -0.003090 2.341805152028776e-38
1.267120 0.194735 -0.003091 2.341805152028776e-38
1.266069 0.188305 -0.003087 2.341805152028776e-38
1.263997 0.181746 -0.003080 2.341805152028776e-38
1.263871 0.175488 -0.003079 2.341805152028776e-38
1.267679 0.169766 -0.003087 2.341805152028776e-38
1.280306 0.312812 -0.009479 2.341805152028776e-38
1.259437 0.301260 -0.009317 2.341805152028776e-38
1.253091 0.293336 -0.009263 2.341805152028776e-38
1.251572 0.286596 -0.009245 2.341805152028776e-38
1.249042 0.279660 -0.009220 2.341805152028776e-38
1.249404 0.273397 -0.009216 2.341805152028776e-38
1.249735 0.267136 -0.009212 2.341805152028776e-38
1.253950 0.261696 -0.009236 2.341805152028776e-38
1.259122 0.256420 -0.009268 2.341805152028776e-38
1.259367 0.250127 -0.009264 2.341805152028776e-38
1.256637 0.243267 -0.009238 2.341805152028776e-38
1.257800 0.237181 -0.009241 2.341805152028776e-38
1.257949 0.230909 -0.009236 2.341805152028776e-38
1.259053 0.224816 -0.009239 2.341805152028776e-38
1.257170 0.218206 -0.009220 2.341805152028776e-38
1.257226 0.211951 -0.009215 2.341805152028776e-38
1.258237 0.205862 -0.009218 2.341805152028776e-38
1.269095 0.201335 -0.009292 2.341805152028776e-38
1.268078 0.194886 -0.009280 2.341805152028776e-38
1.268018 0.188597 -0.009275 2.341805152028776e-38
1.265947 0.182030 -0.009256 2.341805152028776e-38
1.263841 0.175486 -0.009236 2.341805152028776e-38
1.269632 0.170030 -0.009274 2.341805152028776e-38
1.278302 0.312332 -0.015774 2.341805152028776e-38
1.258404 0.301022 -0.015517 2.341805152028776e-38
1.254005 0.293559 -0.015450 2.341805152028776e-38
1.254437 0.287262 -0.015444 2.341805152028776e-38
1.251909 0.280311 -0.015402 2.341805152028776e-38
1.251298 0.273820 -0.015383 2.341805152028776e-38
1.252609 0.267759 -0.015388 2.341805152028776e-38
1.256827 0.262304 -0.015430 2.341805152028776e-38
1.261022 0.256816 -0.015471 2.341805152028776e-38
1.261269 0.250513 -0.015464 2.341805152028776e-38
1.256577 0.243264 -0.015396 2.341805152028776e-38
1.257740 0.237178 -0.015401 2.341805152028776e-38
1.260840 0.231447 -0.015430 2.341805152028776e-38
1.258993 0.224813 -0.015398 2.341805152028776e-38
1.256126 0.218031 -0.015354 2.341805152028776e-38
1.257166 0.211948 -0.015359 2.341805152028776e-38
1.261138 0.206343 -0.015399 2.341805152028776e-38
1.271010 0.201646 -0.015511 2.341805152028776e-38
1.269007 0.195034 -0.015479 2.341805152028776e-38
1.266969 0.188447 -0.015446 2.341805152028776e-38
1.263907 0.181742 -0.015402 2.341805152028776e-38
1.261801 0.175209 -0.015369 2.341805152028776e-38
1.268581 0.169894 -0.015445 2.341805152028776e-38
1.277239 0.312088 -0.022067 2.341805152028776e-38
1.258314 0.301015 -0.021723 2.341805152028776e-38
1.254889 0.293780 -0.021647 2.341805152028776e-38
1.255322 0.287478 -0.021638 2.341805152028776e-38
1.255723 0.281179 -0.021629 2.341805152028776e-38
1.254139 0.274455 -0.021586 2.341805152028776e-38
1.252520 0.267753 -0.021543 2.341805152028776e-38
1.255759 0.262094 -0.021584 2.341805152028776e-38
1.262891 0.257209 -0.021692 2.341805152028776e-38
1.262160 0.250702 -0.021666 2.341805152028776e-38
1.260414 0.244018 -0.021622 2.341805152028776e-38
1.263546 0.238284 -0.021662 2.341805152028776e-38
1.261734 0.231622 -0.021618 2.341805152028776e-38
1.256935 0.224456 -0.021523 2.341805152028776e-38
1.258007 0.218368 -0.021529 2.341805152028776e-38
1.259049 0.212275 -0.021535 2.341805152028776e-38
1.261049 0.206338 -0.021558 2.341805152028776e-38
1.267958 0.201171 -0.021665 2.341805152028776e-38
1.268917 0.195030 -0.021670 2.341805152028776e-38
1.265890 0.188296 -0.021608 2.341805152028776e-38
1.260849 0.181311 -0.021511 2.341805152028776e-38
1.259731 0.174930 -0.021483 2.341805152028776e-38
1.271464 0.170289 -0.021673 2.341805152028776e-38
1.273232 0.311128 -0.028284 2.341805152028776e-38
1.257221 0.300773 -0.027907 2.341805152028776e-38
1.255742 0.293999 -0.027853 2.341805152028776e-38
1.255202 0.287469 -0.027820 2.341805152028776e-38
1.252676 0.280514 -0.027743 2.341805152028776e-38
1.252066 0.274019 -0.027710 2.341805152028776e-38
1.254356 0.268162 -0.027741 2.341805152028776e-38
1.256618 0.262290 -0.027772 2.341805152028776e-38
1.263751 0.257400 -0.027911 2.341805152028776e-38
1.263021 0.250889 -0.027877 2.341805152028776e-38
1.261276 0.244201 -0.027820 2.341805152028776e-38
1.261461 0.237906 -0.027807 2.341805152028776e-38
1.258664 0.231073 -0.027729 2.341805152028776e-38
1.259768 0.224976 -0.027737 2.341805152028776e-38
1.260843 0.218874 -0.027745 2.341805152028776e-38
1.260902 0.212601 -0.027731 2.341805152028776e-38
1.263889 0.206816 -0.027781 2.341805152028776e-38
1.271788 0.201791 -0.027940 2.341805152028776e-38
1.270773 0.195327 -0.027904 2.341805152028776e-38
1.265771 0.188290 -0.027780 2.341805152028776e-38
1.262709 0.181590 -0.027700 2.341805152028776e-38
1.262583 0.175337 -0.027685 2.341805152028776e-38
1.273326 0.170549 -0.027908 2.341805152028776e-38
1.273080 0.311116 -0.034568 2.341805152028776e-38
1.257071 0.300761 -0.034107 2.341805152028776e-38
1.256566 0.294215 -0.034067 2.341805152028776e-38
1.254078 0.287235 -0.033974 2.341805152028776e-38
1.253503 0.280722 -0.033933 2.341805152028776e-38
1.252894 0.274222 -0.033893 2.341805152028776e-38
1.255184 0.268361 -0.033931 2.341805152028776e-38
1.258426 0.262688 -0.033995 2.341805152028776e-38
1.264580 0.257590 -0.034138 2.341805152028776e-38
1.262871 0.250879 -0.034070 2.341805152028776e-38
1.257201 0.243431 -0.033895 2.341805152028776e-38
1.254435 0.236599 -0.033800 2.341805152028776e-38
1.257532 0.230884 -0.033863 2.341805152028776e-38
1.259619 0.224968 -0.033899 2.341805152028776e-38
1.260693 0.218866 -0.033909 2.341805152028776e-38
1.263710 0.213091 -0.033971 2.341805152028776e-38
1.266699 0.207293 -0.034033 2.341805152028776e-38
1.272625 0.201940 -0.034174 2.341805152028776e-38
1.272599 0.195624 -0.034157 2.341805152028776e-38
1.269576 0.188871 -0.034059 2.341805152028776e-38
1.265528 0.182010 -0.033934 2.341805152028776e-38
1.264414 0.175605 -0.033889 2.341805152028776e-38
1.279121 0.171338 -0.034268 2.341805152028776e-38
1.272897 0.311102 -0.040852 2.341805152028776e-38
1.259807 0.301445 -0.040400 2.341805152028776e-38
1.257359 0.294429 -0.040290 2.341805152028776e-38
1.256821 0.287891 -0.040243 2.341805152028776e-38
1.252348 0.280490 -0.040070 2.341805152028776e-38
1.253691 0.274422 -0.040084 2.341805152028776e-38
1.255005 0.268348 -0.040098 2.341805152028776e-38
1.259225 0.262880 -0.040205 2.341805152028776e-38
1.264400 0.257577 -0.040343 2.341805152028776e-38
1.264652 0.251257 -0.040325 2.341805152028776e-38
1.257022 0.243419 -0.040056 2.341805152028776e-38
1.255239 0.236774 -0.039975 2.341805152028776e-38
1.255387 0.230512 -0.039955 2.341805152028776e-38
1.257472 0.224605 -0.039998 2.341805152028776e-38
1.260514 0.218855 -0.040072 2.341805152028776e-38
1.261559 0.212749 -0.040083 2.341805152028776e-38
1.267506 0.207444 -0.040250 2.341805152028776e-38
1.273431 0.202087 -0.040417 2.341805152028776e-38
1.272419 0.195614 -0.040365 2.341805152028776e-38
1.269396 0.188862 -0.040249 2.341805152028776e-38
1.267328 0.182286 -0.040165 2.341805152028776e-38
1.265225 0.175734 -0.040080 2.341805152028776e-38
1.279930 0.171463 -0.040528 2.341805152028776e-38
1.276568 0.312034 -0.047278 2.341805152028776e-38
1.262513 0.302126 -0.046721 2.341805152028776e-38
1.259095 0.294869 -0.046558 2.341805152028776e-38
1.255637 0.287652 -0.046395 2.341805152028776e-38
1.254089 0.280912 -0.046304 2.341805152028776e-38
1.254458 0.274621 -0.046284 2.341805152028776e-38
1.254796 0.268333 -0.046264 2.341805152028776e-38
1.265863 0.264296 -0.046640 2.341805152028776e-38
1.270065 0.258760 -0.046764 2.341805152028776e-38
1.268362 0.252022 -0.046671 2.341805152028776e-38
1.256813 0.243406 -0.046216 2.341805152028776e-38
1.255030 0.236761 -0.046122 2.341805152028776e-38
1.255179 0.230499 -0.046100 2.341805152028776e-38
1.257264 0.224593 -0.046149 2.341805152028776e-38
1.259321 0.218672 -0.046198 2.341805152028776e-38
1.265292 0.213402 -0.046392 2.341805152028776e-38
1.266310 0.207271 -0.046404 2.341805152028776e-38
1.271247 0.201763 -0.046561 2.341805152028776e-38
1.270233 0.195300 -0.046500 2.341805152028776e-38
1.269186 0.188852 -0.046439 2.341805152028776e-38
1.269097 0.182560 -0.046414 2.341805152028776e-38
1.266996 0.175999 -0.046316 2.341805152028776e-38
1.283681 0.171984 -0.046905 2.341805152028776e-38
1.280206 0.312963 -0.053741 2.341805152028776e-38
1.265187 0.302805 -0.053069 2.341805152028776e-38
1.260800 0.295306 -0.052844 2.341805152028776e-38
1.259293 0.288526 -0.052741 2.341805152028776e-38
1.258725 0.281986 -0.052679 2.341805152028776e-38
1.256172 0.275031 -0.052534 2.341805152028776e-38
1.258465 0.269152 -0.052593 2.341805152028776e-38
1.272468 0.265709 -0.053142 2.341805152028776e-38
1.271782 0.259143 -0.053078 2.341805152028776e-38
1.268121 0.252006 -0.052890 2.341805152028776e-38
1.264422 0.244911 -0.052702 2.341805152028776e-38
1.259701 0.237672 -0.052473 2.341805152028776e-38
1.258872 0.231207 -0.052407 2.341805152028776e-38
