VERSION .7
FIELDS x y z rgb
SIZE 4 4 4 4
TYPE F F F F
COUNT 1 1 1 1
WIDTH 976
HEIGHT 1
VIEWPOINT 0 0 0 1 0 0 0
POINTS 976
DATA ascii
1.151455 0.165391 0.484146 2.341805152028776e-38
1.153220 0.159502 0.484524 2.341805152028776e-38
1.153123 0.153360 0.484137 2.341805152028776e-38
1.171266 0.296322 0.495950 2.341805152028776e-38
1.150388 0.284519 0.486435 2.341805152028776e-38
1.142905 0.276213 0.482613 2.341805152028776e-38
1.141670 0.269489 0.481446 2.341805152028776e-38
1.143099 0.263416 0.481416 2.341805152028776e-38
1.142691 0.256937 0.480623 2.341805152028776e-38
1.143137 0.250686 0.480229 2.341805152028776e-38
1.145353 0.244835 0.480602 2.341805152028776e-38
1.146633 0.238785 0.480593 2.341805152028776e-38
1.149695 0.233102 0.481341 2.341805152028776e-38
1.151821 0.227220 0.481707 2.341805152028776e-38
1.150282 0.220631 0.480552 2.341805152028776e-38
1.150524 0.214408 0.480154 2.341805152028776e-38
1.149823 0.208030 0.479374 2.341805152028776e-38
1.149086 0.201671 0.478593 2.341805152028776e-38
1.149226 0.195486 0.478190 2.341805152028776e-38
1.150245 0.189461 0.478164 2.341805152028776e-38
1.152146 0.183582 0.478517 2.341805152028776e-38
1.151266 0.177277 0.477746 2.341805152028776e-38
1.151261 0.171130 0.477364 2.341805152028776e-38
1.153971 0.165387 0.478119 2.341805152028776e-38
1.154820 0.159371 0.478113 2.341805152028776e-38
1.155637 0.153355 0.478107 2.341805152028776e-38
1.171213 0.295618 0.488548 2.341805152028776e-38
1.152080 0.284270 0.479897 2.341805152028776e-38
1.147280 0.276618 0.477242 2.341805152028776e-38
1.146943 0.270094 0.476458 2.341805152028776e-38
1.146559 0.263598 0.475689 2.341805152028776e-38
1.145225 0.256926 0.474558 2.341805152028776e-38
1.146569 0.250876 0.474549 2.341805152028776e-38
1.148788 0.245018 0.474912 2.341805152028776e-38
1.149162 0.238772 0.474522 2.341805152028776e-38
1.150410 0.232719 0.474505 2.341805152028776e-38
1.152536 0.226844 0.474860 2.341805152028776e-38
1.152810 0.220610 0.474464 2.341805152028776e-38
1.153051 0.214386 0.474065 2.341805152028776e-38
1.152345 0.208006 0.473290 2.341805152028776e-38
1.154344 0.202125 0.473637 2.341805152028776e-38
1.153568 0.195771 0.472862 2.341805152028776e-38
1.153661 0.189596 0.472485 2.341805152028776e-38
1.153720 0.183430 0.472106 2.341805152028776e-38
1.155579 0.177554 0.472475 2.341805152028776e-38
1.157408 0.171669 0.472843 2.341805152028776e-38
1.157371 0.165511 0.472460 2.341805152028776e-38
1.156384 0.159237 0.471701 2.341805152028776e-38
1.159038 0.153468 0.472440 2.341805152028776e-38
1.169312 0.294455 0.480426 2.341805152028776e-38
1.153736 0.284016 0.473359 2.341805152028776e-38
1.148916 0.276370 0.470740 2.341805152028776e-38
1.146745 0.269443 0.469254 2.341805152028776e-38
1.148156 0.263383 0.469245 2.341805152028776e-38
1.149535 0.257322 0.469233 2.341805152028776e-38
1.151789 0.251457 0.469589 2.341805152028776e-38
1.153104 0.245389 0.469571 2.341805152028776e-38
1.152568 0.238942 0.468810 2.341805152028776e-38
1.153817 0.232882 0.468788 2.341805152028776e-38
1.155945 0.227000 0.469132 2.341805152028776e-38
1.154394 0.220411 0.467995 2.341805152028776e-38
1.155545 0.214359 0.467966 2.341805152028776e-38
1.155743 0.208147 0.467577 2.341805152028776e-38
1.154985 0.201793 0.466834 2.341805152028776e-38
1.156939 0.195922 0.467199 2.341805152028776e-38
1.157030 0.189741 0.466823 2.341805152028776e-38
1.158924 0.183859 0.467184 2.341805152028776e-38
1.161705 0.178109 0.467914 2.341805152028776e-38
1.159863 0.171659 0.466793 2.341805152028776e-38
1.159824 0.165500 0.466410 2.341805152028776e-38
1.160673 0.159478 0.466397 2.341805152028776e-38
1.163333 0.153698 0.467122 2.341805152028776e-38
1.170970 0.294191 0.473803 2.341805152028776e-38
1.153529 0.283330 0.466124 2.341805152028776e-38
1.151392 0.276363 0.464654 2.341805152028776e-38
1.150120 0.269645 0.463547 2.341805152028776e-38
1.150625 0.263370 0.463167 2.341805152028776e-38
1.152911 0.257508 0.463515 2.341805152028776e-38
1.154259 0.251438 0.463494 2.341805152028776e-38
1.153753 0.244980 0.462740 2.341805152028776e-38
1.154122 0.238729 0.462349 2.341805152028776e-38
1.156283 0.232855 0.462685 2.341805152028776e-38
1.153845 0.226075 0.461194 2.341805152028776e-38
1.154103 0.219865 0.460813 2.341805152028776e-38
1.155236 0.213840 0.460810 2.341805152028776e-38
1.156338 0.207813 0.460804 2.341805152028776e-38
1.161077 0.202426 0.462257 2.341805152028776e-38
1.161200 0.196224 0.461882 2.341805152028776e-38
1.160372 0.189881 0.461140 2.341805152028776e-38
1.163188 0.184139 0.461857 2.341805152028776e-38
1.162294 0.177815 0.461112 2.341805152028776e-38
1.162286 0.171645 0.460731 2.341805152028776e-38
1.162245 0.165485 0.460349 2.341805152028776e-38
1.163094 0.159461 0.460331 2.341805152028776e-38
1.162989 0.153316 0.459947 2.341805152028776e-38
1.221585 0.313119 0.487433 2.341805152028776e-38
1.170750 0.293503 0.466515 2.341805152028776e-38
1.160510 0.284431 0.461818 2.341805152028776e-38
1.157465 0.277219 0.460001 2.341805152028776e-38
1.156191 0.270479 0.458902 2.341805152028776e-38
1.153970 0.263558 0.457440 2.341805152028776e-38
1.155349 0.257486 0.457416 2.341805152028776e-38
1.155785 0.251215 0.457029 2.341805152028776e-38
1.157099 0.245146 0.457000 2.341805152028776e-38
1.156554 0.238699 0.456247 2.341805152028776e-38
1.154135 0.231912 0.454789 2.341805152028776e-38
1.154415 0.225708 0.454425 2.341805152028776e-38
1.156495 0.219860 0.454779 2.341805152028776e-38
1.157628 0.213833 0.454771 2.341805152028776e-38
1.159648 0.207969 0.455120 2.341805152028776e-38
1.161638 0.202095 0.455468 2.341805152028776e-38
1.161758 0.195901 0.455093 2.341805152028776e-38
1.161845 0.189716 0.454717 2.341805152028776e-38
1.163742 0.183832 0.455059 2.341805152028776e-38
1.162843 0.177516 0.454319 2.341805152028776e-38
1.163754 0.171490 0.454299 2.341805152028776e-38
1.162788 0.165203 0.453557 2.341805152028776e-38
1.163635 0.159188 0.453535 2.341805152028776e-38
1.166291 0.153424 0.454256 2.341805152028776e-38
1.216905 0.311258 0.478118 2.341805152028776e-38
1.171390 0.293037 0.459606 2.341805152028776e-38
1.162939 0.284416 0.455676 2.341805152028776e-38
1.161702 0.277635 0.454589 2.341805152028776e-38
1.158605 0.270457 0.452787 2.341805152028776e-38
1.158198 0.263948 0.452049 2.341805152028776e-38
1.159580 0.257864 0.452020 2.341805152028776e-38
1.157276 0.250986 0.450565 2.341805152028776e-38
1.156752 0.244540 0.449833 2.341805152028776e-38
1.155268 0.237934 0.448762 2.341805152028776e-38
1.157412 0.232091 0.449111 2.341805152028776e-38
1.160443 0.226416 0.449813 2.341805152028776e-38
1.161610 0.220373 0.449802 2.341805152028776e-38
1.159989 0.213820 0.448722 2.341805152028776e-38
1.162010 0.207955 0.449062 2.341805152028776e-38
1.163081 0.201919 0.449044 2.341805152028776e-38
1.162277 0.195573 0.448314 2.341805152028776e-38
1.162360 0.189396 0.447937 2.341805152028776e-38
1.163334 0.183374 0.447915 2.341805152028776e-38
1.164277 0.177353 0.447891 2.341805152028776e-38
1.164255 0.171202 0.447528 2.341805152028776e-38
1.164196 0.165064 0.447174 2.341805152028776e-38
1.165958 0.159188 0.447529 2.341805152028776e-38
1.169544 0.153545 0.448593 2.341805152028776e-38
1.212161 0.309390 0.468870 2.341805152028776e-38
1.171990 0.292566 0.452707 2.341805152028776e-38
1.165336 0.284394 0.449526 2.341805152028776e-38
1.164093 0.277610 0.448447 2.341805152028776e-38
1.161898 0.270641 0.447014 2.341805152028776e-38
1.160576 0.263917 0.445929 2.341805152028776e-38
1.161039 0.257631 0.445549 2.341805152028776e-38
1.159624 0.250973 0.444493 2.341805152028776e-38
1.157254 0.244148 0.443084 2.341805152028776e-38
1.158514 0.238115 0.443075 2.341805152028776e-38
1.160661 0.232264 0.443414 2.341805152028776e-38
1.161859 0.226224 0.443400 2.341805152028776e-38
1.161185 0.219835 0.442682 2.341805152028776e-38
1.162317 0.213803 0.442663 2.341805152028776e-38
1.163419 0.207771 0.442642 2.341805152028776e-38
1.161720 0.201259 0.441567 2.341805152028776e-38
1.162756 0.195240 0.441543 2.341805152028776e-38
1.163759 0.189223 0.441520 2.341805152028776e-38
1.164719 0.183216 0.441522 2.341805152028776e-38
1.166574 0.177350 0.441873 2.341805152028776e-38
1.166546 0.171202 0.441520 2.341805152028776e-38
1.166486 0.165062 0.441167 2.341805152028776e-38
1.169178 0.159311 0.441864 2.341805152028776e-38
1.173698 0.153784 0.443261 2.341805152028776e-38
1.203717 0.306591 0.458306 2.341805152028776e-38
1.171640 0.291862 0.445473 2.341805152028776e-38
1.166788 0.284145 0.443021 2.341805152028776e-38
1.163713 0.276928 0.441258 2.341805152028776e-38
1.162421 0.270182 0.440185 2.341805152028776e-38
1.162904 0.263899 0.439831 2.341805152028776e-38
1.162435 0.257423 0.439134 2.341805152028776e-38
1.158262 0.250173 0.437049 2.341805152028776e-38
1.158635 0.243945 0.436691 2.341805152028776e-38
1.158975 0.237725 0.436331 2.341805152028776e-38
1.162962 0.232249 0.437352 2.341805152028776e-38
1.164159 0.226206 0.437332 2.341805152028776e-38
1.165326 0.220163 0.437311 2.341805152028776e-38
1.162769 0.213442 0.435903 2.341805152028776e-38
1.163868 0.207417 0.435877 2.341805152028776e-38
1.165856 0.201557 0.436205 2.341805152028776e-38
1.166880 0.195541 0.436207 2.341805152028776e-38
1.168798 0.189674 0.436552 2.341805152028776e-38
1.170688 0.183798 0.436896 2.341805152028776e-38
1.169764 0.177488 0.436200 2.341805152028776e-38
1.168807 0.171198 0.435503 2.341805152028776e-38
1.168745 0.165057 0.435150 2.341805152028776e-38
1.171440 0.159305 0.435833 2.341805152028776e-38
1.178758 0.154141 0.438245 2.341805152028776e-38
1.198839 0.304711 0.449213 2.341805152028776e-38
1.174894 0.292058 0.439624 2.341805152028776e-38
1.166377 0.283445 0.435835 2.341805152028776e-38
1.166938 0.277119 0.435473 2.341805152028776e-38
1.165623 0.270388 0.434444 2.341805152028776e-38
1.164270 0.263684 0.433412 2.341805152028776e-38
1.160125 0.256399 0.431354 2.341805152028776e-38
1.159611 0.249962 0.430657 2.341805152028776e-38
1.159981 0.243736 0.430299 2.341805152028776e-38
1.162160 0.237895 0.430620 2.341805152028776e-38
1.166153 0.232412 0.431622 2.341805152028776e-38
1.168274 0.226541 0.431938 2.341805152028776e-38
1.167595 0.220138 0.431229 2.341805152028776e-38
1.167799 0.213929 0.430871 2.341805152028776e-38
1.168886 0.207903 0.430872 2.341805152028776e-38
1.172721 0.202356 0.431895 2.341805152028776e-38
1.173749 0.196315 0.431892 2.341805152028776e-38
1.172889 0.189971 0.431205 2.341805152028776e-38
1.173853 0.183938 0.431198 2.341805152028776e-38
1.172927 0.177622 0.430508 2.341805152028776e-38
1.171037 0.171189 0.429475 2.341805152028776e-38
1.170042 0.164916 0.428782 2.341805152028776e-38
1.172740 0.159167 0.429451 2.341805152028776e-38
1.182866 0.154373 0.432849 2.341805152028776e-38
1.198462 0.303983 0.441873 2.341805152028776e-38
1.172636 0.290888 0.431739 2.341805152028776e-38
1.166819 0.282986 0.429043 2.341805152028776e-38
1.165532 0.276244 0.428027 2.341805152028776e-38
1.166960 0.270167 0.428017 2.341805152028776e-38
1.164682 0.263257 0.426658 2.341805152028776e-38
1.162363 0.256384 0.425295 2.341805152028776e-38
1.162766 0.250142 0.424939 2.341805152028776e-38
1.163136 0.243908 0.424581 2.341805152028776e-38
1.165317 0.238060 0.424892 2.341805152028776e-38
1.167468 0.232202 0.425201 2.341805152028776e-38
1.170510 0.226518 0.425854 2.341805152028776e-38
1.168886 0.219956 0.424846 2.341805152028776e-38
1.169078 0.213760 0.424509 2.341805152028776e-38
1.172946 0.208231 0.425515 2.341805152028776e-38
1.174932 0.202352 0.425846 2.341805152028776e-38
1.175031 0.196153 0.425502 2.341805152028776e-38
1.175097 0.189963 0.425156 2.341805152028776e-38
1.176060 0.183928 0.425145 2.341805152028776e-38
1.176062 0.177752 0.424797 2.341805152028776e-38
1.173235 0.171177 0.423437 2.341805152028776e-38
1.173169 0.165033 0.423086 2.341805152028776e-38
1.175871 0.159279 0.423742 2.341805152028776e-38
1.185081 0.154358 0.426754 2.341805152028776e-38
1.190716 0.301409 0.431917 2.341805152028776e-38
1.163887 0.288163 0.421628 2.341805152028776e-38
1.158959 0.280537 0.419297 2.341805152028776e-38
1.163163 0.275147 0.420280 2.341805152028776e-38
1.164585 0.269090 0.420265 2.341805152028776e-38
1.165975 0.263032 0.420246 2.341805152028776e-38
1.168254 0.257174 0.420556 2.341805152028776e-38
1.165893 0.250316 0.419204 2.341805152028776e-38
1.165338 0.243882 0.418513 2.341805152028776e-38
1.168443 0.238222 0.419150 2.341805152028776e-38
1.174283 0.233110 0.420810 2.341805152028776e-38
1.176395 0.227234 0.421140 2.341805152028776e-38
1.171988 0.220128 0.419148 2.341805152028776e-38
1.172179 0.213925 0.418810 2.341805152028776e-38
1.176053 0.208389 0.419797 2.341805152028776e-38
1.175252 0.202024 0.419124 2.341805152028776e-38
1.176278 0.195988 0.419112 2.341805152028776e-38
1.175410 0.189651 0.418435 2.341805152028776e-38
1.178236 0.183914 0.419083 2.341805152028776e-38
1.179169 0.177877 0.419066 2.341805152028776e-38
1.178203 0.171568 0.418385 2.341805152028776e-38
1.178130 0.165417 0.418054 2.341805152028776e-38
1.177086 0.159152 0.417398 2.341805152028776e-38
1.184429 0.154000 0.419725 2.341805152028776e-38
1.192040 0.301172 0.425367 2.341805152028776e-38
1.167909 0.288607 0.416201 2.341805152028776e-38
1.165727 0.281634 0.414880 2.341805152028776e-38
1.164423 0.274914 0.413881 2.341805152028776e-38
1.165844 0.268858 0.413860 2.341805152028776e-38
1.168154 0.263008 0.414163 2.341805152028776e-38
1.170436 0.257148 0.414462 2.341805152028776e-38
1.169915 0.250683 0.413778 2.341805152028776e-38
1.169345 0.244254 0.413120 2.341805152028776e-38
1.174293 0.238977 0.414428 2.341805152028776e-38
1.181999 0.234211 0.416713 2.341805152028776e-38
1.182262 0.227945 0.416380 2.341805152028776e-38
1.178777 0.220992 0.414738 2.341805152028776e-38
1.176182 0.214254 0.413420 2.341805152028776e-38
1.178201 0.208377 0.413735 2.341805152028776e-38
1.176466 0.201851 0.412740 2.341805152028776e-38
1.177491 0.195818 0.412723 2.341805152028776e-38
1.177551 0.189634 0.412378 2.341805152028776e-38
1.179447 0.183751 0.412686 2.341805152028776e-38
1.181300 0.177871 0.413022 2.341805152028776e-38
1.182190 0.171844 0.413029 2.341805152028776e-38
1.181176 0.165555 0.412381 2.341805152028776e-38
1.180130 0.159283 0.411732 2.341805152028776e-38
1.190297 0.154490 0.415002 2.341805152028776e-38
1.196082 0.301623 0.419785 2.341805152028776e-38
1.176502 0.290179 0.412359 2.341805152028776e-38
1.170639 0.282281 0.409762 2.341805152028776e-38
1.168413 0.275326 0.408450 2.341805152028776e-38
1.169835 0.269257 0.408424 2.341805152028776e-38
1.171226 0.263187 0.408394 2.341805152028776e-38
1.172578 0.257126 0.408377 2.341805152028776e-38
1.169259 0.250087 0.406768 2.341805152028776e-38
1.170532 0.244059 0.406765 2.341805152028776e-38
1.177342 0.239161 0.408693 2.341805152028776e-38
1.185060 0.234388 0.410940 2.341805152028776e-38
1.181604 0.227399 0.409319 2.341805152028776e-38
1.177177 0.220284 0.407374 2.341805152028776e-38
1.177366 0.214071 0.407037 2.341805152028776e-38
1.179386 0.208197 0.407342 2.341805152028776e-38
1.181377 0.202312 0.407644 2.341805152028776e-38
1.179600 0.195801 0.406663 2.341805152028776e-38
1.178711 0.189480 0.406028 2.341805152028776e-38
1.179659 0.183468 0.406036 2.341805152028776e-38
1.181513 0.177596 0.406363 2.341805152028776e-38
1.179590 0.171169 0.405400 2.341805152028776e-38
1.182320 0.165426 0.406046 2.341805152028776e-38
1.183146 0.159411 0.406046 2.341805152028776e-38
1.195208 0.154855 0.409909 2.341805152028776e-38
1.200099 0.302069 0.414177 2.341805152028776e-38
1.181403 0.290838 0.407173 2.341805152028776e-38
1.175530 0.282922 0.404609 2.341805152028776e-38
1.175146 0.276384 0.403945 2.341805152028776e-38
1.173802 0.269651 0.402961 2.341805152028776e-38
1.172401 0.262969 0.402011 2.341805152028776e-38
1.173741 0.256923 0.402010 2.341805152028776e-38
1.172267 0.250282 0.401054 2.341805152028776e-38
1.173542 0.244247 0.401047 2.341805152028776e-38
1.177574 0.238775 0.401989 2.341805152028776e-38
1.181580 0.233274 0.402928 2.341805152028776e-38
1.179042 0.226491 0.401644 2.341805152028776e-38
1.178330 0.220093 0.400992 2.341805152028776e-38
1.179449 0.214053 0.400972 2.341805152028776e-38
1.181468 0.208179 0.401273 2.341805152028776e-38
1.180642 0.201830 0.400648 2.341805152028776e-38
1.179781 0.195499 0.400021 2.341805152028776e-38
1.180760 0.189486 0.400026 2.341805152028776e-38
1.180772 0.183327 0.399712 2.341805152028776e-38
1.180751 0.177176 0.399396 2.341805152028776e-38
1.183514 0.171442 0.400031 2.341805152028776e-38
1.184370 0.165425 0.400029 2.341805152028776e-38
1.183316 0.159156 0.399391 2.341805152028776e-38
1.201040 0.155338 0.405096 2.341805152028776e-38
1.198561 0.301120 0.406668 2.341805152028776e-38
1.184437 0.291038 0.401326 2.341805152028776e-38
1.179476 0.283336 0.399108 2.341805152028776e-38
1.174458 0.275711 0.396902 2.341805152028776e-38
1.174012 0.269227 0.396278 2.341805152028776e-38
1.174458 0.262968 0.395963 2.341805152028776e-38
1.176726 0.257121 0.396269 2.341805152028776e-38
1.175248 0.250472 0.395323 2.341805152028776e-38
1.176524 0.244429 0.395311 2.341805152028776e-38
1.177768 0.238385 0.395296 2.341805152028776e-38
1.181778 0.232890 0.396216 2.341805152028776e-38
1.181097 0.226472 0.395571 2.341805152028776e-38
1.181314 0.220247 0.395237 2.341805152028776e-38
1.181484 0.214049 0.394935 2.341805152028776e-38
1.180686 0.207694 0.394318 2.341805152028776e-38
1.182664 0.201837 0.394636 2.341805152028776e-38
1.180863 0.195348 0.393702 2.341805152028776e-38
1.182779 0.189488 0.394016 2.341805152028776e-38
1.184666 0.183618 0.394327 2.341805152028776e-38
1.185585 0.177597 0.394325 2.341805152028776e-38
1.183652 0.171167 0.393383 2.341805152028776e-38
1.183566 0.165027 0.393065 2.341805152028776e-38
1.185332 0.159150 0.393371 2.341805152028776e-38
1.205910 0.155695 0.399924 2.341805152028776e-38
1.202515 0.301555 0.401037 2.341805152028776e-38
1.187441 0.291233 0.395464 2.341805152028776e-38
1.180603 0.283102 0.392690 2.341805152028776e-38
1.179268 0.276362 0.391766 2.341805152028776e-38
1.176967 0.269436 0.390530 2.341805152028776e-38
1.178340 0.263376 0.390523 2.341805152028776e-38
1.179682 0.257314 0.390512 2.341805152028776e-38
1.180993 0.251251 0.390498 2.341805152028776e-38
1.182273 0.245186 0.390481 2.341805152028776e-38
1.183521 0.239120 0.390462 2.341805152028776e-38
1.182871 0.232685 0.389824 2.341805152028776e-38
1.182174 0.226286 0.389211 2.341805152028776e-38
1.181438 0.219908 0.388604 2.341805152028776e-38
1.182541 0.213886 0.388610 2.341805152028776e-38
1.185488 0.208192 0.389229 2.341805152028776e-38
1.184655 0.201839 0.388615 2.341805152028776e-38
1.184728 0.195659 0.388307 2.341805152028776e-38
1.185707 0.189637 0.388304 2.341805152028776e-38
1.186656 0.183615 0.388300 2.341805152028776e-38
1.186634 0.177451 0.387985 2.341805152028776e-38
1.185637 0.171160 0.387362 2.341805152028776e-38
1.188377 0.165413 0.387968 2.341805152028776e-38
1.189195 0.159402 0.387978 2.341805152028776e-38
1.215459 0.156678 0.396302 2.341805152028776e-38
1.199969 0.300368 0.393266 2.341805152028776e-38
1.189468 0.291230 0.389328 2.341805152028776e-38
1.185392 0.283766 0.387508 2.341805152028776e-38
1.184984 0.277225 0.386897 2.341805152028776e-38
1.183610 0.270489 0.385979 2.341805152028776e-38
1.181268 0.263572 0.384754 2.341805152028776e-38
1.182611 0.257502 0.384738 2.341805152028776e-38
1.182991 0.251233 0.384417 2.341805152028776e-38
1.183337 0.244972 0.384092 2.341805152028776e-38
1.184577 0.238917 0.384082 2.341805152028776e-38
1.182971 0.232324 0.383183 2.341805152028776e-38
1.184138 0.226293 0.383190 2.341805152028776e-38
1.183399 0.219913 0.382588 2.341805152028776e-38
1.186378 0.214228 0.383196 2.341805152028776e-38
1.187452 0.208193 0.383196 2.341805152028776e-38
1.186616 0.201837 0.382587 2.341805152028776e-38
1.186687 0.195655 0.382279 2.341805152028776e-38
1.190490 0.190082 0.383181 2.341805152028776e-38
1.192383 0.184189 0.383475 2.341805152028776e-38
1.190477 0.177723 0.382556 2.341805152028776e-38
1.190410 0.171571 0.382271 2.341805152028776e-38
1.191255 0.165558 0.382289 2.341805152028776e-38
1.191126 0.159418 0.382002 2.341805152028776e-38
1.221212 0.157179 0.391407 2.341805152028776e-38
1.202906 0.300601 0.387372 2.341805152028776e-38
1.192386 0.291454 0.383492 2.341805152028776e-38
1.189231 0.284203 0.381994 2.341805152028776e-38
1.187892 0.277432 0.381088 2.341805152028776e-38
1.184653 0.270263 0.379583 2.341805152028776e-38
1.185099 0.263970 0.379267 2.341805152028776e-38
1.184579 0.257482 0.378650 2.341805152028776e-38
1.186824 0.251606 0.378924 2.341805152028776e-38
1.188089 0.245549 0.378934 2.341805152028776e-38
1.188387 0.239303 0.378644 2.341805152028776e-38
1.185841 0.232513 0.377457 2.341805152028776e-38
1.187009 0.226476 0.377459 2.341805152028776e-38
1.188145 0.220436 0.377459 2.341805152028776e-38
1.188311 0.214226 0.377159 2.341805152028776e-38
1.189385 0.208189 0.377154 2.341805152028776e-38
1.188546 0.201831 0.376551 2.341805152028776e-38
1.191441 0.196112 0.377138 2.341805152028776e-38
1.194308 0.190373 0.377724 2.341805152028776e-38
1.194304 0.184194 0.377446 2.341805152028776e-38
1.192381 0.177741 0.376570 2.341805152028776e-38
1.192312 0.171588 0.376288 2.341805152028776e-38
1.192212 0.165442 0.376005 2.341805152028776e-38
1.190189 0.159052 0.375123 2.341805152028776e-38
1.226947 0.157678 0.386465 2.341805152028776e-38
1.203960 0.300365 0.380875 2.341805152028776e-38
1.194347 0.291446 0.377346 2.341805152028776e-38
1.192114 0.284414 0.376160 2.341805152028776e-38
1.189841 0.277417 0.374971 2.341805152028776e-38
1.187526 0.270457 0.373778 2.341805152028776e-38
1.187039 0.263948 0.373168 2.341805152028776e-38
1.187442 0.257671 0.372866 2.341805152028776e-38
1.188737 0.251615 0.372876 2.341805152028776e-38
1.189064 0.245363 0.372589 2.341805152028776e-38
1.188422 0.238931 0.372006 2.341805152028776e-38
1.189622 0.232883 0.372007 2.341805152028776e-38
1.193608 0.227369 0.372886 2.341805152028776e-38
1.191929 0.220781 0.372001 2.341805152028776e-38
1.191155 0.214390 0.371408 2.341805152028776e-38
1.190346 0.208017 0.370812 2.341805152028776e-38
1.190446 0.201821 0.370507 2.341805152028776e-38
1.193331 0.196117 0.371113 2.341805152028776e-38
1.196187 0.190393 0.371719 2.341805152028776e-38
1.193348 0.183775 0.370563 2.341805152028776e-38
1.193309 0.177616 0.370284 2.341805152028776e-38
1.193238 0.171465 0.370004 2.341805152028776e-38
1.194083 0.165454 0.370015 2.341805152028776e-38
1.191108 0.158936 0.368851 2.341805152028776e-38
1.237404 0.158782 0.382944 2.341805152028776e-38
1.206836 0.300588 0.374960 2.341805152028776e-38
1.196277 0.291433 0.371194 2.341805152028776e-38
1.194969 0.284619 0.370311 2.341805152028776e-38
1.193623 0.277831 0.369424 2.341805152028776e-38
1.191305 0.270858 0.368245 2.341805152028776e-38
1.189866 0.264152 0.367385 2.341805152028776e-38
1.190258 0.257883 0.367105 2.341805152028776e-38
1.193428 0.252215 0.367687 2.341805152028776e-38
1.192819 0.245753 0.367113 2.341805152028776e-38
1.191237 0.239119 0.366246 2.341805152028776e-38
1.193378 0.233247 0.366532 2.341805152028776e-38
1.195489 0.227364 0.366814 2.341805152028776e-38
1.194747 0.220948 0.366228 2.341805152028776e-38
1.194913 0.214719 0.365929 2.341805152028776e-38
1.194092 0.208348 0.365364 2.341805152028776e-38
1.194178 0.202160 0.365096 2.341805152028776e-38
1.197067 0.196446 0.365691 2.341805152028776e-38
1.198037 0.190409 0.365707 2.341805152028776e-38
1.196138 0.183935 0.364854 2.341805152028776e-38
1.196098 0.177769 0.364577 2.341805152028776e-38
1.196027 0.171612 0.364298 2.341805152028776e-38
1.196872 0.165594 0.364306 2.341805152028776e-38
1.194841 0.159196 0.363447 2.341805152028776e-38
1.203170 0.299185 0.367042 2.341805152028776e-38
1.196311 0.290962 0.364468 2.341805152028776e-38
1.194064 0.283932 0.363311 2.341805152028776e-38
1.192706 0.277160 0.362440 2.341805152028776e-38
1.193165 0.270864 0.362167 2.341805152028776e-38
1.193591 0.264576 0.361891 2.341805152028776e-38
1.193984 0.258294 0.361611 2.341805152028776e-38
1.193406 0.251821 0.361045 2.341805152028776e-38
1.192792 0.245365 0.360475 2.341805152028776e-38
1.192144 0.238927 0.359903 2.341805152028776e-38
1.195226 0.233241 0.360463 2.341805152028776e-38
1.195455 0.226997 0.360168 2.341805152028776e-38
1.196588 0.220944 0.360169 2.341805152028776e-38
1.196737 0.214735 0.359907 2.341805152028776e-38
1.195910 0.208368 0.359359 2.341805152028776e-38
1.197885 0.202497 0.359660 2.341805152028776e-38
1.200778 0.196771 0.360242 2.341805152028776e-38
1.199856 0.190422 0.359687 2.341805152028776e-38
1.198900 0.184091 0.359129 2.341805152028776e-38
1.196963 0.177637 0.358286 2.341805152028776e-38
1.197839 0.171619 0.358292 2.341805152028776e-38
1.198684 0.165599 0.358296 2.341805152028776e-38
1.195698 0.159073 0.357164 2.341805152028776e-38
1.206910 0.299629 0.361408 2.341805152028776e-38
1.197241 0.290713 0.358036 2.341805152028776e-38
1.194043 0.283476 0.356631 2.341805152028776e-38
1.196405 0.277605 0.356920 2.341805152028776e-38
1.195928 0.271084 0.356369 2.341805152028776e-38
1.196354 0.264787 0.356093 2.341805152028776e-38
1.194869 0.258092 0.355255 2.341805152028776e-38
1.196166 0.252016 0.355252 2.341805152028776e-38
1.196491 0.245746 0.354967 2.341805152028776e-38
1.194901 0.239107 0.354120 2.341805152028776e-38
1.195159 0.232862 0.353829 2.341805152028776e-38
1.199143 0.227364 0.354688 2.341805152028776e-38
1.198379 0.220966 0.354150 2.341805152028776e-38
1.198527 0.214753 0.353889 2.341805152028776e-38
1.199589 0.208713 0.353905 2.341805152028776e-38
1.200621 0.202671 0.353918 2.341805152028776e-38
1.201622 0.196627 0.353929 2.341805152028776e-38
1.200696 0.190282 0.353380 2.341805152028776e-38
1.201635 0.184244 0.353387 2.341805152028776e-38
1.202544 0.178206 0.353392 2.341805152028776e-38
1.201522 0.171895 0.352836 2.341805152028776e-38
1.200457 0.165614 0.352306 2.341805152028776e-38
1.199357 0.159353 0.351780 2.341805152028776e-38
1.207824 0.299373 0.354927 2.341805152028776e-38
1.199057 0.290707 0.351909 2.341805152028776e-38
1.197713 0.283929 0.351095 2.341805152028776e-38
1.199141 0.277828 0.351101 2.341805152028776e-38
1.198663 0.271299 0.350555 2.341805152028776e-38
1.198149 0.264786 0.350005 2.341805152028776e-38
1.199480 0.258696 0.350000 2.341805152028776e-38
1.202662 0.252999 0.350541 2.341805152028776e-38
1.202049 0.246509 0.349982 2.341805152028776e-38
1.202337 0.240236 0.349710 2.341805152028776e-38
1.201639 0.233802 0.349184 2.341805152028776e-38
1.199962 0.227205 0.348381 2.341805152028776e-38
1.200140 0.220983 0.348124 2.341805152028776e-38
1.200287 0.214768 0.347864 2.341805152028776e-38
1.201349 0.208726 0.347877 2.341805152028776e-38
1.204277 0.203001 0.348435 2.341805152028776e-38
1.203382 0.196636 0.347894 2.341805152028776e-38
1.203403 0.190438 0.347625 2.341805152028776e-38
1.204343 0.184394 0.347628 2.341805152028776e-38
1.204291 0.178222 0.347383 2.341805152028776e-38
1.204206 0.172062 0.347142 2.341805152028776e-38
1.205042 0.166039 0.347173 2.341805152028776e-38
1.202989 0.159636 0.346379 2.341805152028776e-38
1.205881 0.298449 0.347677 2.341805152028776e-38
1.199895 0.290490 0.345530 2.341805152028776e-38
1.199483 0.283934 0.344996 2.341805152028776e-38
1.199035 0.277395 0.344458 2.341805152028776e-38
1.199491 0.271085 0.344186 2.341805152028776e-38
1.198973 0.264574 0.343642 2.341805152028776e-38
1.201244 0.258688 0.343902 2.341805152028776e-38
1.203487 0.252790 0.344160 2.341805152028776e-38
1.204742 0.246711 0.344177 2.341805152028776e-38
1.206909 0.240823 0.344469 2.341805152028776e-38
1.202430 0.233637 0.342871 2.341805152028776e-38
1.203586 0.227580 0.342887 2.341805152028776e-38
1.202818 0.221171 0.342361 2.341805152028776e-38
1.203912 0.215119 0.342372 2.341805152028776e-38
1.206874 0.209393 0.342920 2.341805152028776e-38
1.206010 0.203008 0.342387 2.341805152028776e-38
1.207963 0.197105 0.342660 2.341805152028776e-38
1.207026 0.190754 0.342145 2.341805152028776e-38
1.208906 0.184863 0.342451 2.341805152028776e-38
1.211710 0.179101 0.343023 2.341805152028776e-38
1.211628 0.172909 0.342785 2.341805152028776e-38
1.210560 0.166594 0.342274 2.341805152028776e-38
1.206596 0.159916 0.340952 2.341805152028776e-38
1.208570 0.298688 0.341798 2.341805152028776e-38
1.203512 0.290947 0.339949 2.341805152028776e-38
1.202160 0.284157 0.339155 2.341805152028776e-38
1.202650 0.277827 0.338888 2.341805152028776e-38
1.201225 0.271079 0.338087 2.341805152028776e-38
1.200705 0.264564 0.337547 2.341805152028776e-38
1.202975 0.258680 0.337805 2.341805152028776e-38
1.206145 0.253007 0.338359 2.341805152028776e-38
1.203619 0.246153 0.337321 2.341805152028776e-38
1.200110 0.239146 0.336015 2.341805152028776e-38
1.199401 0.232735 0.335501 2.341805152028776e-38
1.203396 0.227235 0.336308 2.341805152028776e-38
1.203572 0.221008 0.336053 2.341805152028776e-38
1.205614 0.215127 0.336325 2.341805152028776e-38
1.207628 0.209234 0.336594 2.341805152028776e-38
1.210560 0.203498 0.337139 2.341805152028776e-38
1.210599 0.197291 0.336911 2.341805152028776e-38
1.210608 0.191090 0.336682 2.341805152028776e-38
1.213444 0.185332 0.337244 2.341805152028776e-38
1.216254 0.179554 0.337805 2.341805152028776e-38
1.217127 0.173482 0.337833 2.341805152028776e-38
1.215104 0.167014 0.337065 2.341805152028776e-38
1.212091 0.160446 0.336029 2.341805152028776e-38
1.213104 0.299387 0.336424 2.341805152028776e-38
1.204286 0.290721 0.333564 2.341805152028776e-38
1.203869 0.284154 0.333041 2.341805152028776e-38
1.205299 0.278037 0.333033 2.341805152028776e-38
1.203871 0.271280 0.332242 2.341805152028776e-38
1.203341 0.264772 0.331726 2.341805152028776e-38
1.207486 0.259312 0.332529 2.341805152028776e-38
1.207826 0.253028 0.332290 2.341805152028776e-38
1.204350 0.245978 0.331007 2.341805152028776e-38
1.201780 0.239161 0.329981 2.341805152028776e-38
1.202017 0.232930 0.329733 2.341805152028776e-38
1.203170 0.226886 0.329741 2.341805152028776e-38
1.205242 0.221014 0.330008 2.341805152028776e-38
1.209187 0.215469 0.330791 2.341805152028776e-38
1.210239 0.209423 0.330828 2.341805152028776e-38
1.214117 0.203855 0.331645 2.341805152028776e-38
1.213204 0.197481 0.331160 2.341805152028776e-38
1.212258 0.191122 0.330672 2.341805152028776e-38
1.216052 0.185508 0.331482 2.341805152028776e-38
1.219820 0.179864 0.332291 2.341805152028776e-38
1.217827 0.173372 0.331536 2.341805152028776e-38
1.217713 0.167169 0.331300 2.341805152028776e-38
1.218524 0.161101 0.331321 2.341805152028776e-38
1.213861 0.299155 0.329996 2.341805152028776e-38
1.207847 0.291170 0.327950 2.341805152028776e-38
1.208371 0.284812 0.327687 2.341805152028776e-38
1.208861 0.278460 0.327420 2.341805152028776e-38
1.207420 0.271712 0.326665 2.341805152028776e-38
1.205934 0.265003 0.325923 2.341805152028776e-38
1.208193 0.259129 0.326198 2.341805152028776e-38
1.208531 0.252847 0.325959 2.341805152028776e-38
1.206942 0.246185 0.325207 2.341805152028776e-38
1.207213 0.239926 0.324963 2.341805152028776e-38
1.204604 0.233122 0.323949 2.341805152028776e-38
1.205758 0.227071 0.323954 2.341805152028776e-38
1.206876 0.221028 0.323973 2.341805152028776e-38
1.210810 0.215507 0.324778 2.341805152028776e-38
1.214719 0.209954 0.325581 2.341805152028776e-38
1.216696 0.204050 0.325871 2.341805152028776e-38
1.214827 0.197513 0.325136 2.341805152028776e-38
1.215789 0.191453 0.325166 2.341805152028776e-38
1.217676 0.185536 0.325449 2.341805152028776e-38
1.219535 0.179608 0.325729 2.341805152028776e-38
1.218494 0.173259 0.325241 2.341805152028776e-38
1.220294 0.167322 0.325518 2.341805152028776e-38
1.224933 0.161765 0.326582 2.341805152028776e-38
1.215523 0.299151 0.323823 2.341805152028776e-38
1.209499 0.291162 0.321811 2.341805152028776e-38
1.209079 0.284578 0.321298 2.341805152028776e-38
1.207665 0.277822 0.320564 2.341805152028776e-38
1.208098 0.271523 0.320336 2.341805152028776e-38
1.207554 0.265022 0.319854 2.341805152028776e-38
1.207921 0.258740 0.319620 2.341805152028776e-38
1.209203 0.252662 0.319633 2.341805152028776e-38
1.209507 0.246388 0.319392 2.341805152028776e-38
1.209778 0.240121 0.319149 2.341805152028776e-38
1.209066 0.233678 0.318652 2.341805152028776e-38
1.208306 0.227275 0.318185 2.341805152028776e-38
1.209415 0.221241 0.318224 2.341805152028776e-38
1.212401 0.215543 0.318761 2.341805152028776e-38
1.216314 0.209988 0.319547 2.341805152028776e-38
1.218292 0.204081 0.319829 2.341805152028776e-38
1.219287 0.198007 0.319858 2.341805152028776e-38
1.218338 0.191630 0.319384 2.341805152028776e-38
1.219271 0.185561 0.319408 2.341805152028776e-38
1.218258 0.179208 0.318929 2.341805152028776e-38
1.218164 0.173018 0.318718 2.341805152028776e-38
1.223789 0.167633 0.320026 2.341805152028776e-38
1.231309 0.162449 0.321834 2.341805152028776e-38
1.219037 0.299605 0.318137 2.341805152028776e-38
1.214890 0.292056 0.316650 2.341805152028776e-38
1.211623 0.284818 0.315444 2.341805152028776e-38
1.213981 0.278930 0.315712 2.341805152028776e-38
1.212527 0.272179 0.314994 2.341805152028776e-38
1.211036 0.265453 0.314272 2.341805152028776e-38
1.209509 0.258753 0.313547 2.341805152028776e-38
1.208893 0.252276 0.313065 2.341805152028776e-38
1.211093 0.246395 0.313317 2.341805152028776e-38
1.213262 0.240507 0.313572 2.341805152028776e-38
1.215388 0.234633 0.313860 2.341805152028776e-38
1.213676 0.228030 0.313161 2.341805152028776e-38
1.214789 0.221974 0.313197 2.341805152028776e-38
1.215871 0.215916 0.313230 2.341805152028776e-38
1.217879 0.210019 0.313507 2.341805152028776e-38
1.220815 0.204270 0.314027 2.341805152028776e-38
1.220854 0.198034 0.313808 2.341805152028776e-38
1.221818 0.191955 0.313831 2.341805152028776e-38
1.220832 0.185589 0.313372 2.341805152028776e-38
1.217886 0.178973 0.312445 2.341805152028776e-38
1.217785 0.172800 0.312253 2.341805152028776e-38
1.225334 0.167685 0.314028 2.341805152028776e-38
1.234786 0.162753 0.316293 2.341805152028776e-38
1.220639 0.299592 0.311946 2.341805152028776e-38
1.216464 0.292078 0.310525 2.341805152028776e-38
1.217914 0.285949 0.310547 2.341805152028776e-38
1.217441 0.279383 0.310084 2.341805152028776e-38
1.216933 0.272831 0.309618 2.341805152028776e-38
1.214493 0.265880 0.308666 2.341805152028776e-38
1.213913 0.259370 0.308193 2.341805152028776e-38
1.214249 0.253074 0.307957 2.341805152028776e-38
1.215495 0.246992 0.307977 2.341805152028776e-38
1.216702 0.240925 0.308018 2.341805152028776e-38
1.216926 0.234671 0.307816 2.341805152028776e-38
1.216164 0.228245 0.307369 2.341805152028776e-38
1.216323 0.222008 0.307161 2.341805152028776e-38
1.217406 0.215947 0.307192 2.341805152028776e-38
1.219415 0.210048 0.307461 2.341805152028776e-38
1.221396 0.204136 0.307728 2.341805152028776e-38
1.224306 0.198368 0.308233 2.341805152028776e-38
1.225260 0.192299 0.308289 2.341805152028776e-38
1.221386 0.185501 0.307140 2.341805152028776e-38
1.221316 0.179310 0.306954 2.341805152028776e-38
1.224097 0.173533 0.307489 2.341805152028776e-38
1.231658 0.168392 0.309229 2.341805152028776e-38
1.240161 0.163308 0.311209 2.341805152028776e-38
1.221245 0.299385 0.305558 2.341805152028776e-38
1.218951 0.292327 0.304635 2.341805152028776e-38
1.219456 0.285968 0.304418 2.341805152028776e-38
1.218981 0.279398 0.303960 2.341805152028776e-38
1.217522 0.272631 0.303263 2.341805152028776e-38
1.217925 0.266304 0.303036 2.341805152028776e-38
1.218295 0.259984 0.302804 2.341805152028776e-38
1.218621 0.253692 0.302597 2.341805152028776e-38
1.218908 0.247419 0.302401 2.341805152028776e-38
1.219164 0.241152 0.302203 2.341805152028776e-38
1.219387 0.234891 0.302002 2.341805152028776e-38
1.220534 0.228815 0.302035 2.341805152028776e-38
1.220694 0.222561 0.301829 2.341805152028776e-38
1.218910 0.215974 0.301147 2.341805152028776e-38
1.220921 0.210073 0.301409 2.341805152028776e-38
1.225772 0.204650 0.302393 2.341805152028776e-38
1.225796 0.198425 0.302217 2.341805152028776e-38
1.226749 0.192357 0.302275 2.341805152028776e-38
1.227672 0.186284 0.302330 2.341805152028776e-38
1.229527 0.180349 0.302620 2.341805152028776e-38
1.230391 0.174265 0.302671 2.341805152028776e-38
1.235077 0.168704 0.303667 2.341805152028776e-38
1.247444 0.164115 0.306554 2.341805152028776e-38
1.226542 0.300332 0.300332 2.341805152028776e-38
1.220464 0.292345 0.298500 2.341805152028776e-38
1.219073 0.285539 0.297821 2.341805152028776e-38
1.219542 0.279192 0.297601 2.341805152028776e-38
1.218078 0.272427 0.296914 2.341805152028776e-38
1.219429 0.266309 0.296919 2.341805152028776e-38
1.219784 0.260014 0.296722 2.341805152028776e-38
1.223912 0.254525 0.297457 2.341805152028776e-38
1.223249 0.248037 0.297032 2.341805152028776e-38
1.221598 0.241376 0.296373 2.341805152028776e-38
1.222776 0.235291 0.296406 2.341805152028776e-38
1.222013 0.228844 0.295972 2.341805152028776e-38
1.223129 0.222762 0.295999 2.341805152028776e-38
1.223258 0.216508 0.295792 2.341805152028776e-38
1.225260 0.210613 0.296080 2.341805152028776e-38
1.229151 0.205031 0.296835 2.341805152028776e-38
1.228215 0.198639 0.296430 2.341805152028776e-38
1.227247 0.192262 0.296022 2.341805152028776e-38
1.228170 0.186192 0.296076 2.341805152028776e-38
1.228100 0.179978 0.295895 2.341805152028776e-38
1.226074 0.173497 0.295248 2.341805152028776e-38
1.237506 0.168882 0.297847 2.341805152028776e-38
1.262425 0.165935 0.303692 2.341805152028776e-38
1.227087 0.300120 0.293932 2.341805152028776e-38
1.223840 0.292813 0.292813 2.341805152028776e-38
1.223397 0.286216 0.292372 2.341805152028776e-38
1.221968 0.279417 0.291699 2.341805152028776e-38
1.221453 0.272856 0.291251 2.341805152028776e-38
1.221838 0.266552 0.291062 2.341805152028776e-38
1.224094 0.260663 0.291330 2.341805152028776e-38
1.225368 0.254563 0.291368 2.341805152028776e-38
1.223748 0.247879 0.290722 2.341805152028776e-38
1.223048 0.241408 0.290301 2.341805152028776e-38
1.222314 0.234953 0.289877 2.341805152028776e-38
1.227291 0.229588 0.290811 2.341805152028776e-38
1.226492 0.223140 0.290388 2.341805152028776e-38
1.227565 0.217074 0.290451 2.341805152028776e-38
1.229569 0.211169 0.290739 2.341805152028776e-38
1.230584 0.205089 0.290798 2.341805152028776e-38
1.230607 0.198850 0.290627 2.341805152028776e-38
1.228676 0.192316 0.290000 2.341805152028776e-38
1.227673 0.185952 0.289597 2.341805152028776e-38
1.226637 0.179603 0.289192 2.341805152028776e-38
1.227498 0.173543 0.289239 2.341805152028776e-38
1.243767 0.169588 0.292924 2.341805152028776e-38
1.278367 0.167894 0.300942 2.341805152028776e-38
1.231387 0.300829 0.288424 2.341805152028776e-38
1.227190 0.293278 0.287104 2.341805152028776e-38
1.227696 0.286890 0.286890 2.341805152028776e-38
1.224366 0.279639 0.285785 2.341805152028776e-38
1.222881 0.272894 0.285159 2.341805152028776e-38
1.223263 0.266592 0.284978 2.341805152028776e-38
1.222659 0.260093 0.284572 2.341805152028776e-38
1.219157 0.253013 0.283497 2.341805152028776e-38
1.216570 0.246171 0.282641 2.341805152028776e-38
1.222556 0.241060 0.283780 2.341805152028776e-38
1.226606 0.235531 0.284473 2.341805152028776e-38
1.227749 0.229447 0.284514 2.341805152028776e-38
1.227893 0.223204 0.284355 2.341805152028776e-38
1.228007 0.216966 0.284194 2.341805152028776e-38
1.231933 0.211392 0.284920 2.341805152028776e-38
1.232949 0.205306 0.284976 2.341805152028776e-38
1.232972 0.199060 0.284808 2.341805152028776e-38
1.230075 0.192367 0.283971 2.341805152028776e-38
1.229070 0.186001 0.283576 2.341805152028776e-38
1.232856 0.180356 0.284290 2.341805152028776e-38
1.233716 0.174281 0.284353 2.341805152028776e-38
1.248068 0.170045 0.287531 2.341805152028776e-38
1.291408 0.169478 0.297386 2.341805152028776e-38
1.230921 0.300378 0.281798 2.341805152028776e-38
1.228615 0.293286 0.280937 2.341805152028776e-38
1.229119 0.286894 0.280724 2.341805152028776e-38
1.229573 0.280548 0.280548 2.341805152028776e-38
1.229040 0.273997 0.280154 2.341805152028776e-38
1.226565 0.267045 0.279323 2.341805152028776e-38
1.218322 0.258910 0.277186 2.341805152028776e-38
1.211942 0.251262 0.275480 2.341805152028776e-38
1.216040 0.245813 0.276160 2.341805152028776e-38
1.223944 0.241087 0.277708 2.341805152028776e-38
1.228946 0.235761 0.278626 2.341805152028776e-38
1.229121 0.229510 0.278473 2.341805152028776e-38
1.227344 0.222916 0.277882 2.341805152028776e-38
1.228416 0.216855 0.277941 2.341805152028776e-38
1.230421 0.210954 0.278215 2.341805152028776e-38
1.232398 0.205040 0.278487 2.341805152028776e-38
1.232419 0.198801 0.278321 2.341805152028776e-38
1.231445 0.192417 0.277936 2.341805152028776e-38
1.235261 0.186784 0.278644 2.341805152028776e-38
1.237116 0.180843 0.278928 2.341805152028776e-38
1.236044 0.174480 0.278556 2.341805152028776e-38
1.254281 0.170765 0.282538 2.341805152028776e-38
1.306380 0.171316 0.294146 2.341805152028776e-38
1.232319 0.300386 0.275612 2.341805152028776e-38
1.230959 0.293517 0.274979 2.341805152028776e-38
1.231446 0.287156 0.274806 2.341805152028776e-38
1.231898 0.280806 0.274634 2.341805152028776e-38
1.229457 0.273823 0.273823 2.341805152028776e-38
1.229841 0.267496 0.273645 2.341805152028776e-38
1.222546 0.259551 0.271765 2.341805152028776e-38
1.220944 0.252876 0.271156 2.341805152028776e-38
1.225053 0.247387 0.271820 2.341805152028776e-38
1.230084 0.242082 0.272725 2.341805152028776e-38
1.232209 0.236192 0.273002 2.341805152028776e-38
1.232385 0.229930 0.272851 2.341805152028776e-38
1.232530 0.223673 0.272697 2.341805152028776e-38
1.232644 0.217421 0.272541 2.341805152028776e-38
1.234652 0.211503 0.272809 2.341805152028776e-38
1.238560 0.205893 0.273500 2.341805152028776e-38
1.236655 0.199317 0.272911 2.341805152028776e-38
1.235676 0.192929 0.272550 2.341805152028776e-38
1.237561 0.186996 0.272830 2.341805152028776e-38
1.238452 0.180907 0.272894 2.341805152028776e-38
1.235443 0.174269 0.272104 2.341805152028776e-38
1.258538 0.171220 0.277065 2.341805152028776e-38
1.324257 0.173534 0.291407 2.341805152028776e-38
1.233686 0.300390 0.269422 2.341805152028776e-38
1.233257 0.293782 0.269043 2.341805152028776e-38
1.232790 0.287198 0.268669 2.341805152028776e-38
1.232288 0.280627 0.268291 2.341805152028776e-38
1.234615 0.274707 0.268534 2.341805152028776e-38
1.232135 0.267735 0.267735 2.341805152028776e-38
1.231530 0.261203 0.267349 2.341805152028776e-38
1.230891 0.254686 0.266960 2.341805152028776e-38
1.230203 0.248217 0.266603 2.341805152028776e-38
1.233318 0.242523 0.267083 2.341805152028776e-38
1.235447 0.236622 0.267352 2.341805152028776e-38
1.234663 0.230169 0.266996 2.341805152028776e-38
1.234807 0.223904 0.266845 2.341805152028776e-38
1.236848 0.217985 0.267108 2.341805152028776e-38
1.239824 0.212216 0.267577 2.341805152028776e-38
1.240843 0.206106 0.267630 2.341805152028776e-38
1.240860 0.199850 0.267492 2.341805152028776e-38
1.238913 0.193297 0.266934 2.341805152028776e-38
1.239834 0.187206 0.266999 2.341805152028776e-38
1.238790 0.180828 0.266645 2.341805152028776e-38
1.236745 0.174329 0.266081 2.341805152028776e-38
1.263741 0.171806 0.271766 2.341805152028776e-38
1.342138 0.175753 0.288500 2.341805152028776e-38
1.239765 0.301582 0.264273 2.341805152028776e-38
1.237431 0.294504 0.263503 2.341805152028776e-38
1.234103 0.287236 0.262527 2.341805152028776e-38
1.233599 0.280662 0.262157 2.341805152028776e-38
1.233060 0.274102 0.261783 2.341805152028776e-38
1.233444 0.267765 0.261609 2.341805152028776e-38
1.232837 0.261229 0.261229 2.341805152028776e-38
1.236017 0.255538 0.261695 2.341805152028776e-38
1.236288 0.249248 0.261557 2.341805152028776e-38
1.235567 0.242774 0.261212 2.341805152028776e-38
1.235774 0.236498 0.261069 2.341805152028776e-38
1.236912 0.230405 0.261126 2.341805152028776e-38
1.238021 0.224308 0.261181 2.341805152028776e-38
1.238135 0.218037 0.261030 2.341805152028776e-38
1.241111 0.212274 0.261496 2.341805152028776e-38
1.244055 0.206496 0.261973 2.341805152028776e-38
1.241174 0.199762 0.261227 2.341805152028776e-38
1.239224 0.193211 0.260682 2.341805152028776e-38
1.239176 0.186977 0.260542 2.341805152028776e-38
1.239098 0.180748 0.260400 2.341805152028776e-38
1.236080 0.174114 0.259644 2.341805152028776e-38
1.267952 0.172260 0.266219 2.341805152028776e-38
1.364875 0.178607 0.286445 2.341805152028776e-38
1.559995 0.196355 0.327258 2.341805152028776e-38
1.240104 0.301392 0.257892 2.341805152028776e-38
1.238719 0.294542 0.257337 2.341805152028776e-38
1.235387 0.287271 0.256382 2.341805152028776e-38
1.234881 0.280694 0.256018 2.341805152028776e-38
1.233383 0.273919 0.255452 2.341805152028776e-38
1.234723 0.267791 0.255479 2.341805152028776e-38
1.237934 0.262101 0.255934 2.341805152028776e-38
1.242077 0.256594 0.256594 2.341805152028776e-38
1.240431 0.249891 0.256061 2.341805152028776e-38
1.238749 0.243211 0.255526 2.341805152028776e-38
1.238957 0.236923 0.255385 2.341805152028776e-38
1.241061 0.230998 0.255638 2.341805152028776e-38
1.240244 0.224536 0.255294 2.341805152028776e-38
1.241319 0.218438 0.255358 2.341805152028776e-38
1.244294 0.212674 0.255825 2.341805152028776e-38
1.243375 0.206244 0.255496 2.341805152028776e-38
1.240488 0.199516 0.254767 2.341805152028776e-38
1.241439 0.193426 0.254831 2.341805152028776e-38
1.243330 0.187477 0.255092 2.341805152028776e-38
1.241313 0.180949 0.254555 2.341805152028776e-38
1.236352 0.174035 0.253420 2.341805152028776e-38
1.278937 0.173635 0.262031 2.341805152028776e-38
1.589758 0.199966 0.325435 2.341805152028776e-38
1.241364 0.301431 0.251711 2.341805152028776e-38
1.239976 0.294578 0.251166 2.341805152028776e-38
1.237595 0.287525 0.250425 2.341805152028776e-38
1.238045 0.281158 0.250261 2.341805152028776e-38
1.236547 0.274370 0.249708 2.341805152028776e-38
1.238833 0.268473 0.249958 2.341805152028776e-38
1.241087 0.262572 0.250216 2.341805152028776e-38
1.241392 0.256259 0.250084 2.341805152028776e-38
1.239741 0.249563 0.249563 2.341805152028776e-38
1.239017 0.243080 0.249234 2.341805152028776e-38
1.240188 0.236978 0.249289 2.341805152028776e-38
1.242293 0.231051 0.249535 2.341805152028776e-38
1.241468 0.224600 0.249214 2.341805152028776e-38
1.242541 0.218509 0.249285 2.341805152028776e-38
1.246485 0.212907 0.249935 2.341805152028776e-38
1.244597 0.206310 0.249420 2.341805152028776e-38
1.245581 0.200203 0.249484 2.341805152028776e-38
1.243628 0.193639 0.248965 2.341805152028776e-38
1.244550 0.187537 0.249025 2.341805152028776e-38
1.246414 0.181573 0.249278 2.341805152028776e-38
1.242421 0.174774 0.248364 2.341805152028776e-38
1.290883 0.175141 0.257935 2.341805152028776e-38
1.655551 0.208105 0.330520 2.341805152028776e-38
1.241639 0.301235 0.245336 2.341805152028776e-38
1.240247 0.294384 0.244803 2.341805152028776e-38
1.239775 0.287777 0.244456 2.341805152028776e-38
1.241183 0.281619 0.244482 2.341805152028776e-38
1.241589 0.275276 0.244346 2.341805152028776e-38
1.241956 0.268953 0.244222 2.341805152028776e-38
1.240371 0.262228 0.243718 2.341805152028776e-38
1.240672 0.255922 0.243589 2.341805152028776e-38
1.239980 0.249427 0.243269 2.341805152028776e-38
1.242145 0.243513 0.243513 2.341805152028776e-38
1.242353 0.237215 0.243377 2.341805152028776e-38
1.243488 0.231118 0.243444 2.341805152028776e-38
1.244592 0.225020 0.243515 2.341805152028776e-38
1.245667 0.218917 0.243584 2.341805152028776e-38
1.248648 0.213139 0.244029 2.341805152028776e-38
1.248696 0.206856 0.243905 2.341805152028776e-38
1.246774 0.200266 0.243400 2.341805152028776e-38
1.246759 0.194002 0.243272 2.341805152028776e-38
1.249625 0.188181 0.243710 2.341805152028776e-38
1.250521 0.182054 0.243767 2.341805152028776e-38
1.245553 0.175103 0.242686 2.341805152028776e-38
1.298927 0.176120 0.252972 2.341805152028776e-38
1.742862 0.218940 0.339142 2.341805152028776e-38
1.245703 0.301963 0.239703 2.341805152028776e-38
1.244312 0.295094 0.239181 2.341805152028776e-38
1.243841 0.288470 0.238841 2.341805152028776e-38
1.244284 0.282104 0.238703 2.341805152028776e-38
1.242765 0.275340 0.238216 2.341805152028776e-38
1.244093 0.269223 0.238278 2.341805152028776e-38
1.244429 0.262897 0.238154 2.341805152028776e-38
1.243771 0.256377 0.237843 2.341805152028776e-38
1.245006 0.250257 0.237899 2.341805152028776e-38
1.246211 0.244133 0.237952 2.341805152028776e-38
1.244484 0.237467 0.237467 2.341805152028776e-38
1.245618 0.231368 0.237538 2.341805152028776e-38
1.245757 0.225089 0.237423 2.341805152028776e-38
1.246831 0.218984 0.237490 2.341805152028776e-38
