VERSION .7
FIELDS x y z rgb
SIZE 4 4 4 4
TYPE F F F F
COUNT 1 1 1 1
WIDTH 957
HEIGHT 1
VIEWPOINT 0 0 0 1 0 0 0
POINTS 957
DATA ascii
1.865135 -1.425796 1.013225 2.341805152028776e-38
1.842661 -1.426681 1.005298 2.341805152028776e-38
0.944361 -0.779364 0.526938 2.341805152028776e-38
0.918418 -0.767633 0.514838 2.341805152028776e-38
0.905931 -0.766929 0.510267 2.341805152028776e-38
0.899762 -0.771491 0.509245 2.341805152028776e-38
0.892184 -0.774807 0.507423 2.341805152028776e-38
0.887361 -0.780492 0.507168 2.341805152028776e-38
0.881816 -0.785542 0.506507 2.341805152028776e-38
0.875562 -0.789943 0.505442 2.341805152028776e-38
0.870594 -0.795581 0.505179 2.341805152028776e-38
0.866936 -0.802447 0.505693 2.341805152028776e-38
0.860544 -0.806790 0.504622 2.341805152028776e-38
0.855466 -0.812356 0.504325 2.341805152028776e-38
0.847702 -0.815347 0.502446 2.341805152028776e-38
0.848499 -0.826620 0.505661 2.341805152028776e-38
0.845203 -0.834109 0.506532 2.341805152028776e-38
0.842498 -0.842247 0.507781 2.341805152028776e-38
0.835200 -0.845809 0.506273 2.341805152028776e-38
0.828534 -0.849976 0.505146 2.341805152028776e-38
0.821850 -0.854098 0.504008 2.341805152028776e-38
0.817672 -0.860851 0.504428 2.341805152028776e-38
0.812135 -0.866283 0.504074 2.341805152028776e-38
0.807189 -0.872360 0.504098 2.341805152028776e-38
0.802820 -0.879096 0.504499 2.341805152028776e-38
1.995159 -1.319186 1.021905 2.341805152028776e-38
1.982666 -1.328186 1.019305 2.341805152028776e-38
1.972387 -1.338677 1.017888 2.341805152028776e-38
1.959024 -1.347022 1.014880 2.341805152028776e-38
1.945633 -1.355268 1.011852 2.341805152028776e-38
1.936724 -1.366597 1.011159 2.341805152028776e-38
1.928499 -1.378415 1.010838 2.341805152028776e-38
1.920165 -1.390232 1.010521 2.341805152028776e-38
1.906507 -1.398256 1.007477 2.341805152028776e-38
1.899472 -1.411116 1.007940 2.341805152028776e-38
1.887940 -1.420637 1.006030 2.341805152028776e-38
1.869778 -1.425062 1.000576 2.341805152028776e-38
1.839251 -1.419771 0.988448 2.341805152028776e-38
0.974483 -0.791614 0.533128 2.341805152028776e-38
0.932645 -0.767318 0.512581 2.341805152028776e-38
0.915899 -0.763160 0.505709 2.341805152028776e-38
0.906967 -0.765370 0.503131 2.341805152028776e-38
0.900802 -0.769930 0.502128 2.341805152028776e-38
0.893920 -0.773846 0.500724 2.341805152028776e-38
0.889796 -0.780141 0.500868 2.341805152028776e-38
0.884939 -0.785809 0.500612 2.341805152028776e-38
0.879363 -0.790836 0.499954 2.341805152028776e-38
0.873744 -0.795843 0.499293 2.341805152028776e-38
0.868058 -0.800848 0.498641 2.341805152028776e-38
0.862344 -0.805818 0.497977 2.341805152028776e-38
0.858611 -0.812654 0.498468 2.341805152028776e-38
0.852831 -0.817568 0.497781 2.341805152028776e-38
0.849008 -0.824373 0.498247 2.341805152028776e-38
0.845768 -0.831832 0.499099 2.341805152028776e-38
0.842434 -0.839316 0.499953 2.341805152028776e-38
0.835796 -0.843522 0.498857 2.341805152028776e-38
0.829784 -0.848343 0.498137 2.341805152028776e-38
0.825028 -0.854453 0.498180 2.341805152028776e-38
0.820864 -0.861211 0.498596 2.341805152028776e-38
0.815349 -0.866638 0.498242 2.341805152028776e-38
0.809775 -0.872053 0.497885 2.341805152028776e-38
0.804166 -0.877437 0.497516 2.341805152028776e-38
1.996559 -1.316410 1.007393 2.341805152028776e-38
1.988727 -1.328417 1.007125 2.341805152028776e-38
1.976924 -1.337885 1.004955 2.341805152028776e-38
1.967350 -1.348847 1.003936 2.341805152028776e-38
1.950147 -1.354498 0.999019 2.341805152028776e-38
1.944255 -1.367960 0.999899 2.341805152028776e-38
1.934520 -1.378739 0.998819 2.341805152028776e-38
1.926222 -1.390541 0.998494 2.341805152028776e-38
1.916300 -1.401278 0.997416 2.341805152028776e-38
1.906287 -1.411988 0.996338 2.341805152028776e-38
1.887365 -1.416001 0.990593 2.341805152028776e-38
1.866264 -1.418174 0.983669 2.341805152028776e-38
0.959096 -0.776741 0.516771 2.341805152028776e-38
0.930778 -0.763447 0.503813 2.341805152028776e-38
0.918272 -0.762803 0.499345 2.341805152028776e-38
0.908634 -0.764414 0.496412 2.341805152028776e-38
0.903196 -0.769555 0.495800 2.341805152028776e-38
0.897706 -0.774684 0.495190 2.341805152028776e-38
0.891494 -0.779173 0.494183 2.341805152028776e-38
0.887335 -0.785455 0.494321 2.341805152028776e-38
0.882446 -0.791106 0.494062 2.341805152028776e-38
0.877522 -0.796732 0.493792 2.341805152028776e-38
0.871846 -0.801737 0.493144 2.341805152028776e-38
0.867476 -0.807982 0.493262 2.341805152028776e-38
0.861047 -0.812308 0.492217 2.341805152028776e-38
0.855935 -0.817867 0.491928 2.341805152028776e-38
0.852115 -0.824684 0.492394 2.341805152028776e-38
0.848244 -0.831492 0.492848 2.341805152028776e-38
0.842964 -0.837023 0.492544 2.341805152028776e-38
0.838290 -0.843189 0.492616 2.341805152028776e-38
0.833572 -0.849336 0.492676 2.341805152028776e-38
0.828169 -0.854799 0.492340 2.341805152028776e-38
0.824008 -0.861569 0.492757 2.341805152028776e-38
0.817890 -0.866312 0.492017 2.341805152028776e-38
0.812318 -0.871734 0.491670 2.341805152028776e-38
0.807337 -0.877807 0.491693 2.341805152028776e-38
2.005577 -1.318689 0.996756 2.341805152028776e-38
1.993119 -1.327662 0.994203 2.341805152028776e-38
1.983676 -1.338625 0.993173 2.341805152028776e-38
1.977905 -1.352219 0.994097 2.341805152028776e-38
1.960653 -1.357918 0.989253 2.341805152028776e-38
1.948699 -1.367185 0.987070 2.341805152028776e-38
1.937458 -1.376904 0.985251 2.341805152028776e-38
1.934420 -1.392488 0.987623 2.341805152028776e-38
1.920067 -1.399933 0.984233 2.341805152028776e-38
1.905602 -1.407354 0.980883 2.341805152028776e-38
1.882237 -1.408025 0.972927 2.341805152028776e-38
1.856725 -1.406800 0.963808 2.341805152028776e-38
0.995901 -0.793949 0.526032 2.341805152028776e-38
0.948582 -0.765915 0.503316 2.341805152028776e-38
0.928840 -0.759564 0.495100 2.341805152028776e-38
0.917044 -0.759487 0.491074 2.341805152028776e-38
0.910243 -0.763458 0.489708 2.341805152028776e-38
0.906249 -0.769773 0.489856 2.341805152028776e-38
0.900058 -0.774307 0.488876 2.341805152028776e-38
0.894541 -0.779410 0.488268 2.341805152028776e-38
0.888996 -0.784480 0.487650 2.341805152028776e-38
0.884802 -0.790749 0.487780 2.341805152028776e-38
0.879880 -0.796382 0.487519 2.341805152028776e-38
0.874921 -0.801992 0.487248 2.341805152028776e-38
0.868517 -0.806360 0.486232 2.341805152028776e-38
0.865464 -0.813854 0.487102 2.341805152028776e-38
0.859672 -0.818796 0.486443 2.341805152028776e-38
0.854519 -0.824344 0.486152 2.341805152028776e-38
0.849331 -0.829865 0.485849 2.341805152028776e-38
0.845412 -0.836672 0.486297 2.341805152028776e-38
0.841395 -0.843502 0.486752 2.341805152028776e-38
0.834729 -0.847682 0.485682 2.341805152028776e-38
0.830627 -0.854472 0.486113 2.341805152028776e-38
0.825832 -0.860582 0.486153 2.341805152028776e-38
0.819720 -0.865326 0.485427 2.341805152028776e-38
0.814819 -0.871406 0.485454 2.341805152028776e-38
0.811099 -0.878848 0.486235 2.341805152028776e-38
2.012992 -1.319938 0.985306 2.341805152028776e-38
2.002826 -1.330476 0.983934 2.341805152028776e-38
1.997213 -1.344054 0.984814 2.341805152028776e-38
1.985356 -1.353490 0.982671 2.341805152028776e-38
1.966546 -1.358166 0.977142 2.341805152028776e-38
1.957612 -1.369576 0.976514 2.341805152028776e-38
1.947103 -1.379869 0.975108 2.341805152028776e-38
1.941806 -1.393878 0.976328 2.341805152028776e-38
1.927427 -1.401353 0.972991 2.341805152028776e-38
1.911512 -1.407642 0.968896 2.341805152028776e-38
1.888841 -1.408886 0.961428 2.341805152028776e-38
0.968656 -0.769937 0.503786 2.341805152028776e-38
0.940828 -0.757398 0.491536 2.341805152028776e-38
0.927550 -0.756255 0.486820 2.341805152028776e-38
0.918608 -0.758521 0.484357 2.341805152028776e-38
0.913228 -0.763681 0.483766 2.341805152028776e-38
0.907821 -0.768810 0.483165 2.341805152028776e-38
0.900962 -0.772714 0.481810 2.341805152028776e-38
0.896152 -0.778423 0.481592 2.341805152028776e-38
0.890610 -0.783495 0.480987 2.341805152028776e-38
0.886425 -0.789767 0.481123 2.341805152028776e-38
0.882886 -0.796645 0.481622 2.341805152028776e-38
0.876559 -0.801013 0.480608 2.341805152028776e-38
0.870188 -0.805359 0.479596 2.341805152028776e-38
0.867148 -0.812856 0.480461 2.341805152028776e-38
0.862032 -0.818438 0.480191 2.341805152028776e-38
0.856881 -0.823994 0.479909 2.341805152028776e-38
0.851696 -0.829523 0.479615 2.341805152028776e-38
0.846476 -0.835024 0.479310 2.341805152028776e-38
0.842495 -0.841838 0.479757 2.341805152028776e-38
0.837139 -0.847336 0.479454 2.341805152028776e-38
0.833044 -0.854134 0.479885 2.341805152028776e-38
0.828253 -0.860252 0.479930 2.341805152028776e-38
0.822780 -0.865676 0.479591 2.341805152028776e-38
0.817908 -0.871747 0.479612 2.341805152028776e-38
0.812937 -0.877837 0.479643 2.341805152028776e-38
2.022673 -1.322693 0.974943 2.341805152028776e-38
2.012483 -1.333275 0.973601 2.341805152028776e-38
2.003010 -1.344312 0.972613 2.341805152028776e-38
1.991177 -1.353732 0.970484 2.341805152028776e-38
1.976948 -1.361554 0.967258 2.341805152028776e-38
1.966471 -1.371951 0.965903 2.341805152028776e-38
1.957456 -1.383355 0.965274 2.341805152028776e-38
1.947621 -1.394172 0.964251 2.341805152028776e-38
1.933222 -1.401667 0.960968 2.341805152028776e-38
1.916561 -1.407403 0.956546 2.341805152028776e-38
1.879745 -1.398102 0.942069 2.341805152028776e-38
0.999740 -0.782402 0.509697 2.341805152028776e-38
0.955703 -0.757452 0.489382 2.341805152028776e-38
0.937309 -0.752354 0.482121 2.341805152028776e-38
0.928356 -0.754692 0.479703 2.341805152028776e-38
0.920844 -0.758135 0.478021 2.341805152028776e-38
0.914751 -0.762707 0.477072 2.341805152028776e-38
0.909347 -0.767838 0.476484 2.341805152028776e-38
0.904620 -0.773540 0.476258 2.341805152028776e-38
0.899822 -0.779250 0.476040 2.341805152028776e-38
0.894971 -0.784950 0.475819 2.341805152028776e-38
0.890780 -0.791242 0.475958 2.341805152028776e-38
0.883783 -0.795035 0.474602 2.341805152028776e-38
0.876088 -0.798150 0.472866 2.341805152028776e-38
0.871121 -0.803724 0.472602 2.341805152028776e-38
0.870143 -0.813117 0.474570 2.341805152028776e-38
0.866375 -0.819988 0.475048 2.341805152028776e-38
0.859202 -0.823635 0.473665 2.341805152028776e-38
0.853352 -0.828523 0.473011 2.341805152028776e-38
0.850126 -0.835982 0.473824 2.341805152028776e-38
0.844861 -0.841475 0.473518 2.341805152028776e-38
0.840161 -0.847641 0.473593 2.341805152028776e-38
0.835418 -0.853787 0.473656 2.341805152028776e-38
0.829986 -0.859244 0.473338 2.341805152028776e-38
0.824520 -0.864671 0.473008 2.341805152028776e-38
0.820294 -0.871423 0.473403 2.341805152028776e-38
0.814094 -0.876134 0.472691 2.341805152028776e-38
2.029190 -1.323402 0.963039 2.341805152028776e-38
2.018214 -1.333497 0.961358 2.341805152028776e-38
2.012596 -1.347139 0.962242 2.341805152028776e-38
1.997658 -1.354515 0.958675 2.341805152028776e-38
1.983471 -1.362300 0.955459 2.341805152028776e-38
1.972986 -1.372718 0.954132 2.341805152028776e-38
1.963204 -1.383612 0.953155 2.341805152028776e-38
1.951850 -1.393370 0.951420 2.341805152028776e-38
1.935932 -1.399786 0.947453 2.341805152028776e-38
1.914008 -1.401678 0.940520 2.341805152028776e-38
0.981553 -0.766005 0.492659 2.341805152028776e-38
0.951355 -0.751882 0.479596 2.341805152028776e-38
0.937340 -0.750206 0.474620 2.341805152028776e-38
0.929112 -0.753120 0.472606 2.341805152028776e-38
0.923038 -0.757740 0.471685 2.341805152028776e-38
0.916228 -0.761724 0.470387 2.341805152028776e-38
0.912251 -0.768055 0.470547 2.341805152028776e-38
0.906815 -0.773164 0.469963 2.341805152028776e-38
0.902756 -0.779460 0.470103 2.341805152028776e-38
0.897204 -0.784559 0.469524 2.341805152028776e-38
0.891623 -0.789625 0.468935 2.341805152028776e-38
0.884630 -0.793415 0.467602 2.341805152028776e-38
0.881070 -0.800281 0.468089 2.341805152028776e-38
0.878144 -0.807770 0.468930 2.341805152028776e-38
0.875825 -0.815906 0.470132 2.341805152028776e-38
0.870013 -0.820890 0.469513 2.341805152028776e-38
0.862828 -0.824552 0.468152 2.341805152028776e-38
0.857639 -0.830103 0.467876 2.341805152028776e-38
0.853080 -0.836279 0.467954 2.341805152028776e-38
0.847817 -0.841780 0.467656 2.341805152028776e-38
0.843803 -0.848597 0.468087 2.341805152028776e-38
0.837751 -0.853430 0.467426 2.341805152028776e-38
0.832321 -0.858894 0.467118 2.341805152028776e-38
0.826857 -0.864328 0.466798 2.341805152028776e-38
0.821358 -0.869733 0.466466 2.341805152028776e-38
0.817732 -0.877153 0.467212 2.341805152028776e-38
2.033296 -1.322573 0.950017 2.341805152028776e-38
2.027759 -1.336264 0.950923 2.341805152028776e-38
2.021357 -1.349433 0.951444 2.341805152028776e-38
2.006386 -1.356848 0.947935 2.341805152028776e-38
1.995241 -1.366775 0.946229 2.341805152028776e-38
1.985554 -1.377717 0.945250 2.341805152028776e-38
1.975737 -1.388673 0.944298 2.341805152028776e-38
1.961310 -1.396333 0.941140 2.341805152028776e-38
1.943840 -1.401702 0.936508 2.341805152028776e-38
1.013525 -0.778826 0.498579 2.341805152028776e-38
0.970551 -0.755313 0.479514 2.341805152028776e-38
0.949122 -0.748032 0.470983 2.341805152028776e-38
0.938015 -0.748658 0.467529 2.341805152028776e-38
0.930543 -0.752125 0.465891 2.341805152028776e-38
0.923028 -0.755566 0.464263 2.341805152028776e-38
0.916942 -0.760137 0.463350 2.341805152028776e-38
0.913690 -0.767065 0.463877 2.341805152028776e-38
0.909679 -0.773383 0.464030 2.341805152028776e-38
0.904212 -0.778471 0.463448 2.341805152028776e-38
0.899395 -0.784160 0.463230 2.341805152028776e-38
0.893116 -0.788615 0.462292 2.341805152028776e-38
0.888902 -0.794893 0.462428 2.341805152028776e-38
0.884646 -0.801154 0.462553 2.341805152028776e-38
0.882408 -0.809289 0.463750 2.341805152028776e-38
0.879421 -0.816798 0.464573 2.341805152028776e-38
0.871581 -0.819867 0.462877 2.341805152028776e-38
0.867096 -0.826104 0.462982 2.341805152028776e-38
0.860555 -0.830380 0.461993 2.341805152028776e-38
0.855996 -0.836568 0.462075 2.341805152028776e-38
0.850069 -0.841423 0.461426 2.341805152028776e-38
0.845433 -0.847563 0.461485 2.341805152028776e-38
0.839387 -0.852398 0.460837 2.341805152028776e-38
0.835265 -0.859203 0.461257 2.341805152028776e-38
0.829799 -0.864650 0.460946 2.341805152028776e-38
0.824940 -0.870744 0.460982 2.341805152028776e-38
0.820676 -0.877498 0.461365 2.341805152028776e-38
2.045931 -1.327313 0.940959 2.341805152028776e-38
2.034135 -1.336967 0.938986 2.341805152028776e-38
2.029286 -1.351195 0.940233 2.341805152028776e-38
2.015832 -1.359687 0.937501 2.341805152028776e-38
2.004661 -1.369657 0.935829 2.341805152028776e-38
1.988840 -1.376369 0.931981 2.341805152028776e-38
1.982888 -1.389970 0.932825 2.341805152028776e-38
1.966152 -1.396039 0.928642 2.341805152028776e-38
1.943355 -1.397609 0.921567 2.341805152028776e-38
0.987633 -0.756848 0.478176 2.341805152028776e-38
0.962377 -0.746898 0.467973 2.341805152028776e-38
0.948289 -0.745325 0.463144 2.341805152028776e-38
0.939370 -0.747682 0.460816 2.341805152028776e-38
0.931912 -0.751135 0.459196 2.341805152028776e-38
0.924410 -0.754563 0.457586 2.341805152028776e-38
0.920485 -0.760921 0.457765 2.341805152028776e-38
0.917949 -0.768463 0.458648 2.341805152028776e-38
0.912506 -0.773594 0.458089 2.341805152028776e-38
0.907745 -0.779300 0.457877 2.341805152028776e-38
0.902243 -0.784370 0.457297 2.341805152028776e-38
0.895965 -0.788831 0.456373 2.341805152028776e-38
0.890357 -0.793876 0.455800 2.341805152028776e-38
0.886803 -0.800766 0.456285 2.341805152028776e-38
0.881819 -0.806386 0.456046 2.341805152028776e-38
0.879542 -0.814520 0.457221 2.341805152028776e-38
0.873784 -0.819473 0.456607 2.341805152028776e-38
0.869982 -0.826362 0.457072 2.341805152028776e-38
0.863434 -0.830649 0.456102 2.341805152028776e-38
0.857537 -0.835543 0.455477 2.341805152028776e-38
0.852279 -0.841057 0.455196 2.341805152028776e-38
0.846987 -0.846544 0.454904 2.341805152028776e-38
0.842291 -0.852687 0.454967 2.341805152028776e-38
0.838172 -0.859504 0.455386 2.341805152028776e-38
0.832704 -0.864962 0.455084 2.341805152028776e-38
0.828489 -0.871745 0.455479 2.341805152028776e-38
0.823583 -0.877833 0.455508 2.341805152028776e-38
2.051465 -1.327471 0.928606 2.341805152028776e-38
2.044351 -1.340217 0.928802 2.341805152028776e-38
2.040270 -1.355011 0.930399 2.341805152028776e-38
2.025227 -1.362511 0.927005 2.341805152028776e-38
2.008623 -1.368839 0.922883 2.341805152028776e-38
1.993555 -1.376092 0.919451 2.341805152028776e-38
1.986135 -1.388582 0.919550 2.341805152028776e-38
1.968629 -1.394108 0.915075 2.341805152028776e-38
1.932886 -1.386414 0.902077 2.341805152028776e-38
1.015238 -0.766102 0.481642 2.341805152028776e-38
0.975652 -0.745642 0.464856 2.341805152028776e-38
0.959279 -0.742478 0.459042 2.341805152028776e-38
0.949607 -0.744339 0.456406 2.341805152028776e-38
0.941413 -0.747279 0.454467 2.341805152028776e-38
0.933949 -0.750737 0.452874 2.341805152028776e-38
0.928649 -0.755914 0.452334 2.341805152028776e-38
0.923996 -0.761696 0.452162 2.341805152028776e-38
0.920743 -0.768655 0.452686 2.341805152028776e-38
0.915297 -0.773797 0.452140 2.341805152028776e-38
0.911245 -0.780122 0.452289 2.341805152028776e-38
0.905030 -0.784594 0.451369 2.341805152028776e-38
0.900184 -0.790273 0.451152 2.341805152028776e-38
0.892467 -0.793472 0.449534 2.341805152028776e-38
0.888223 -0.799743 0.449667 2.341805152028776e-38
0.885321 -0.807257 0.450492 2.341805152028776e-38
0.881672 -0.814137 0.450953 2.341805152028776e-38
0.876605 -0.819730 0.450700 2.341805152028776e-38
0.870790 -0.824679 0.450100 2.341805152028776e-38
0.864249 -0.828964 0.449148 2.341805152028776e-38
0.859704 -0.835161 0.449238 2.341805152028776e-38
0.853781 -0.840026 0.448616 2.341805152028776e-38
0.850485 -0.847498 0.449385 2.341805152028776e-38
0.845152 -0.852971 0.449091 2.341805152028776e-38
0.839731 -0.858457 0.448807 2.341805152028776e-38
0.834920 -0.864591 0.448864 2.341805152028776e-38
0.829420 -0.870026 0.448560 2.341805152028776e-38
0.820032 -0.871337 0.446148 2.341805152028776e-38
2.056864 -1.327678 0.916285 2.341805152028776e-38
2.050599 -1.340890 0.916795 2.341805152028776e-38
2.043402 -1.353640 0.916982 2.341805152028776e-38
2.030681 -1.362712 0.914697 2.341805152028776e-38
2.008631 -1.365373 0.908189 2.341805152028776e-38
1.999736 -1.376862 0.907618 2.341805152028776e-38
1.986167 -1.385090 0.904926 2.341805152028776e-38
1.969486 -1.391080 0.900832 2.341805152028776e-38
1.001636 -0.753874 0.467593 2.341805152028776e-38
0.973980 -0.742376 0.456608 2.341805152028776e-38
0.959818 -0.740911 0.451925 2.341805152028776e-38
0.949402 -0.742191 0.448980 2.341805152028776e-38
0.941946 -0.745704 0.447422 2.341805152028776e-38
0.935945 -0.750331 0.446553 2.341805152028776e-38
0.929196 -0.754327 0.445326 2.341805152028776e-38
0.926026 -0.761274 0.445846 2.341805152028776e-38
0.922781 -0.768240 0.446368 2.341805152028776e-38
0.917335 -0.773387 0.445835 2.341805152028776e-38
0.912575 -0.779110 0.445639 2.341805152028776e-38
0.907779 -0.784810 0.445433 2.341805152028776e-38
0.901538 -0.789250 0.444520 2.341805152028776e-38
0.895237 -0.793682 0.443617 2.341805152028776e-38
0.890994 -0.799963 0.443753 2.341805152028776e-38
0.886709 -0.806228 0.443878 2.341805152028776e-38
0.882381 -0.812475 0.443992 2.341805152028776e-38
0.877324 -0.818066 0.443748 2.341805152028776e-38
0.872231 -0.823631 0.443493 2.341805152028776e-38
0.867048 -0.829214 0.443253 2.341805152028776e-38
0.861155 -0.834118 0.442655 2.341805152028776e-38
0.857246 -0.840955 0.443084 2.341805152028776e-38
0.853951 -0.848444 0.443848 2.341805152028776e-38
0.847951 -0.853266 0.443216 2.341805152028776e-38
0.841902 -0.858069 0.442583 2.341805152028776e-38
0.835789 -0.862863 0.441954 2.341805152028776e-38
0.830949 -0.868975 0.442005 2.341805152028776e-38
0.827998 -0.877113 0.443078 2.341805152028776e-38
2.063769 -1.328886 0.904641 2.341805152028776e-38
2.052811 -1.339025 0.903063 2.341805152028776e-38
2.050362 -1.354841 0.905308 2.341805152028776e-38
2.036063 -1.362897 0.902375 2.341805152028776e-38
2.020964 -1.370317 0.899077 2.341805152028776e-38
2.006623 -1.378149 0.896106 2.341805152028776e-38
1.991491 -1.385334 0.892771 2.341805152028776e-38
1.030787 -0.764118 0.471477 2.341805152028776e-38
0.987904 -0.741633 0.453742 2.341805152028776e-38
0.967748 -0.735705 0.446348 2.341805152028776e-38
0.956589 -0.736472 0.443105 2.341805152028776e-38
0.950626 -0.741189 0.442273 2.341805152028776e-38
0.943167 -0.744703 0.440743 2.341805152028776e-38
0.937168 -0.749331 0.439891 2.341805152028776e-38
0.931148 -0.753919 0.439029 2.341805152028776e-38
0.928012 -0.760847 0.439533 2.341805152028776e-38
0.923332 -0.766616 0.439365 2.341805152028776e-38
0.919332 -0.772969 0.439532 2.341805152028776e-38
0.915289 -0.779308 0.439687 2.341805152028776e-38
0.910493 -0.785018 0.439489 2.341805152028776e-38
0.905661 -0.790703 0.439279 2.341805152028776e-38
0.898673 -0.794506 0.438036 2.341805152028776e-38
0.893728 -0.800176 0.437832 2.341805152028776e-38
0.888748 -0.805821 0.437618 2.341805152028776e-38
0.883732 -0.811439 0.437393 2.341805152028776e-38
0.877994 -0.816392 0.436815 2.341805152028776e-38
0.873597 -0.822597 0.436911 2.341805152028776e-38
0.868449 -0.828159 0.436666 2.341805152028776e-38
0.864589 -0.835024 0.437106 2.341805152028776e-38
0.860006 -0.841220 0.437193 2.341805152028776e-38
0.856048 -0.848058 0.437610 2.341805152028776e-38
0.849385 -0.852222 0.436651 2.341805152028776e-38
0.844023 -0.857679 0.436363 2.341805152028776e-38
0.837263 -0.861799 0.435404 2.341805152028776e-38
0.833733 -0.869271 0.436139 2.341805152028776e-38
2.065864 -1.327032 0.890918 2.341805152028776e-38
2.059637 -1.340247 0.891420 2.341805152028776e-38
2.056466 -1.355516 0.893266 2.341805152028776e-38
2.048408 -1.367766 0.893108 2.341805152028776e-38
2.029368 -1.372614 0.888162 2.341805152028776e-38
2.014221 -1.379953 0.884902 2.341805152028776e-38
1.991336 -1.381810 0.878217 2.341805152028776e-38
1.001837 -0.740778 0.450772 2.341805152028776e-38
0.971786 -0.727688 0.439069 2.341805152028776e-38
0.958416 -0.726768 0.434844 2.341805152028776e-38
0.954036 -0.732597 0.434694 2.341805152028776e-38
0.951804 -0.740179 0.435579 2.341805152028776e-38
0.945082 -0.744275 0.434414 2.341805152028776e-38
0.939817 -0.749496 0.433918 2.341805152028776e-38
0.933791 -0.754093 0.433074 2.341805152028776e-38
0.929930 -0.760437 0.433237 2.341805152028776e-38
0.924559 -0.765584 0.432721 2.341805152028776e-38
0.920568 -0.771939 0.432891 2.341805152028776e-38
0.917967 -0.779497 0.433728 2.341805152028776e-38
0.913170 -0.785218 0.433537 2.341805152028776e-38
0.907627 -0.790296 0.432997 2.341805152028776e-38
0.902058 -0.795340 0.432447 2.341805152028776e-38
0.897127 -0.801008 0.432242 2.341805152028776e-38
0.891443 -0.806037 0.431697 2.341805152028776e-38
0.886427 -0.811666 0.431480 2.341805152028776e-38
0.881375 -0.817269 0.431253 2.341805152028776e-38
0.875603 -0.822201 0.430676 2.341805152028776e-38
0.871850 -0.829043 0.431102 2.341805152028776e-38
0.866634 -0.834616 0.430867 2.341805152028776e-38
0.862056 -0.840819 0.430957 2.341805152028776e-38
0.857435 -0.847002 0.431037 2.341805152028776e-38
0.851439 -0.851834 0.430432 2.341805152028776e-38
0.846741 -0.857968 0.430489 2.341805152028776e-38
0.838692 -0.860726 0.428863 2.341805152028776e-38
0.844969 -0.878383 0.434633 2.341805152028776e-38
2.073421 -1.328720 0.879575 2.341805152028776e-38
2.071138 -1.344532 0.881763 2.341805152028776e-38
2.062445 -1.356236 0.881241 2.341805152028776e-38
2.054445 -1.368445 0.881054 2.341805152028776e-38
2.036153 -1.373844 0.876525 2.341805152028776e-38
2.020982 -1.381211 0.873322 2.341805152028776e-38
1.030263 -0.750330 0.454062 2.341805152028776e-38
0.989357 -0.729725 0.437835 2.341805152028776e-38
0.969871 -0.724442 0.430997 2.341805152028776e-38
0.963258 -0.728618 0.429854 2.341805152028776e-38
0.958126 -0.733891 0.429372 2.341805152028776e-38
0.954426 -0.740316 0.429566 2.341805152028776e-38
0.949179 -0.745586 0.429093 2.341805152028776e-38
0.943167 -0.750239 0.428274 2.341805152028776e-38
0.937133 -0.754852 0.427446 2.341805152028776e-38
0.931809 -0.760019 0.426943 2.341805152028776e-38
0.928637 -0.766954 0.427433 2.341805152028776e-38
0.923927 -0.772714 0.427266 2.341805152028776e-38
0.919890 -0.779070 0.427427 2.341805152028776e-38
0.915095 -0.784796 0.427244 2.341805152028776e-38
0.910976 -0.791116 0.427385 2.341805152028776e-38
0.906107 -0.796798 0.427181 2.341805152028776e-38
0.901198 -0.802459 0.426969 2.341805152028776e-38
0.895503 -0.807507 0.426436 2.341805152028776e-38
0.889781 -0.812520 0.425893 2.341805152028776e-38
0.883339 -0.816858 0.425007 2.341805152028776e-38
0.877567 -0.821796 0.424444 2.341805152028776e-38
0.873137 -0.827996 0.424536 2.341805152028776e-38
0.869318 -0.834852 0.424961 2.341805152028776e-38
0.864741 -0.841066 0.425055 2.341805152028776e-38
0.859448 -0.846599 0.424806 2.341805152028776e-38
0.855456 -0.853435 0.425210 2.341805152028776e-38
0.849423 -0.858248 0.424607 2.341805152028776e-38
0.840066 -0.859649 0.422336 2.341805152028776e-38
2.089661 -1.335984 0.871839 2.341805152028776e-38
2.078638 -1.346240 0.870360 2.341805152028776e-38
2.065200 -1.354872 0.867867 2.341805152028776e-38
2.054877 -1.365492 0.866682 2.341805152028776e-38
2.042874 -1.375060 0.864856 2.341805152028776e-38
2.020661 -1.377672 0.858728 2.341805152028776e-38
1.013115 -0.736023 0.439087 2.341805152028776e-38
0.987402 -0.726489 0.429711 2.341805152028776e-38
0.973192 -0.725135 0.425290 2.341805152028776e-38
0.966569 -0.729325 0.424168 2.341805152028776e-38
0.962181 -0.735185 0.424028 2.341805152028776e-38
0.957757 -0.741024 0.423878 2.341805152028776e-38
0.951020 -0.745144 0.422755 2.341805152028776e-38
0.945005 -0.749803 0.421954 2.341805152028776e-38
0.939706 -0.755012 0.421472 2.341805152028776e-38
0.935844 -0.761380 0.421641 2.341805152028776e-38
0.931939 -0.767735 0.421799 2.341805152028776e-38
0.926529 -0.772878 0.421294 2.341805152028776e-38
0.922493 -0.779244 0.421459 2.341805152028776e-38
0.917696 -0.784981 0.421283 2.341805152028776e-38
0.913579 -0.791311 0.421426 2.341805152028776e-38
0.908709 -0.797003 0.421230 2.341805152028776e-38
0.903804 -0.802670 0.421023 2.341805152028776e-38
0.896725 -0.806444 0.419834 2.341805152028776e-38
0.891706 -0.812095 0.419633 2.341805152028776e-38
0.885957 -0.817079 0.419092 2.341805152028776e-38
0.880181 -0.822027 0.418541 2.341805152028776e-38
0.875752 -0.828238 0.418637 2.341805152028776e-38
0.872645 -0.835736 0.419377 2.341805152028776e-38
0.867388 -0.841306 0.419145 2.341805152028776e-38
0.862094 -0.846850 0.418904 2.341805152028776e-38
0.857435 -0.853031 0.418980 2.341805152028776e-38
0.852733 -0.859191 0.419044 2.341805152028776e-38
0.844020 -0.861281 0.417136 2.341805152028776e-38
2.105086 -1.342727 0.863632 2.341805152028776e-38
2.094015 -1.353064 0.862185 2.341805152028776e-38
2.074198 -1.357634 0.857124 2.341805152028776e-38
2.063852 -1.368296 0.855966 2.341805152028776e-38
2.049529 -1.376261 0.853158 2.341805152028776e-38
1.040833 -0.744868 0.441762 2.341805152028776e-38
1.002715 -0.726698 0.427286 2.341805152028776e-38
0.983862 -0.722127 0.420985 2.341805152028776e-38
0.976482 -0.725821 0.419567 2.341805152028776e-38
0.971359 -0.731162 0.419118 2.341805152028776e-38
0.966960 -0.737046 0.418985 2.341805152028776e-38
0.960280 -0.741176 0.417865 2.341805152028776e-38
0.953564 -0.745277 0.416747 2.341805152028776e-38
0.948287 -0.750532 0.416287 2.341805152028776e-38
0.942981 -0.755756 0.415817 2.341805152028776e-38
0.938382 -0.761543 0.415663 2.341805152028776e-38
0.935208 -0.768508 0.416149 2.341805152028776e-38
0.929078 -0.773049 0.415324 2.341805152028776e-38
0.925059 -0.779410 0.415483 2.341805152028776e-38
0.918823 -0.783930 0.414666 2.341805152028776e-38
0.914713 -0.790262 0.414812 2.341805152028776e-38
0.910562 -0.796578 0.414948 2.341805152028776e-38
0.905659 -0.802251 0.414748 2.341805152028776e-38
0.899310 -0.806637 0.413892 2.341805152028776e-38
0.894290 -0.812298 0.413698 2.341805152028776e-38
0.887842 -0.816652 0.412846 2.341805152028776e-38
0.884144 -0.823541 0.413279 2.341805152028776e-38
0.879707 -0.829771 0.413377 2.341805152028776e-38
0.874543 -0.835328 0.413141 2.341805152028776e-38
0.869318 -0.840880 0.412905 2.341805152028776e-38
0.864703 -0.847092 0.412995 2.341805152028776e-38
0.858029 -0.851284 0.412106 2.341805152028776e-38
0.855343 -0.859455 0.413142 2.341805152028776e-38
0.853253 -0.868306 0.414488 2.341805152028776e-38
2.120487 -1.349458 0.855290 2.341805152028776e-38
2.099821 -1.353719 0.850010 2.341805152028776e-38
2.080764 -1.358831 0.845355 2.341805152028776e-38
2.066458 -1.366910 0.842615 2.341805152028776e-38
2.045049 -1.370135 0.836960 2.341805152028776e-38
1.024165 -0.731234 0.427345 2.341805152028776e-38
0.998330 -0.721822 0.418223 2.341805152028776e-38
0.986367 -0.722233 0.414900 2.341805152028776e-38
0.980499 -0.727064 0.414150 2.341805152028776e-38
0.974610 -0.731855 0.413391 2.341805152028776e-38
0.968699 -0.736608 0.412623 2.341805152028776e-38
0.962766 -0.741320 0.411844 2.341805152028776e-38
0.956812 -0.745992 0.411057 2.341805152028776e-38
0.950792 -0.750668 0.410284 2.341805152028776e-38
0.945484 -0.755901 0.409826 2.341805152028776e-38
0.940147 -0.761103 0.409358 2.341805152028776e-38
0.935516 -0.766873 0.409201 2.341805152028776e-38
0.931578 -0.773224 0.409354 2.341805152028776e-38
0.926863 -0.778960 0.409181 2.341805152028776e-38
0.922069 -0.784714 0.409021 2.341805152028776e-38
0.917957 -0.791061 0.409169 2.341805152028776e-38
0.912374 -0.796146 0.408668 2.341805152028776e-38
0.908894 -0.803079 0.409116 2.341805152028776e-38
0.903246 -0.808108 0.408594 2.341805152028776e-38
0.897540 -0.813130 0.408076 2.341805152028776e-38
0.891082 -0.817498 0.407241 2.341805152028776e-38
0.887383 -0.824402 0.407672 2.341805152028776e-38
0.881562 -0.829348 0.407135 2.341805152028776e-38
0.877087 -0.835565 0.407225 2.341805152028776e-38
0.872570 -0.841763 0.407305 2.341805152028776e-38
0.866597 -0.846664 0.406760 2.341805152028776e-38
0.859921 -0.850862 0.405888 2.341805152028776e-38
0.871310 -0.873134 0.413590 2.341805152028776e-38
0.872471 -0.885459 0.416505 2.341805152028776e-38
2.123055 -1.348044 0.841736 2.341805152028776e-38
2.107950 -1.355901 0.838766 2.341805152028776e-38
2.090443 -1.362085 0.834826 2.341805152028776e-38
2.069770 -1.366031 0.829599 2.341805152028776e-38
1.053489 -0.741017 0.430372 2.341805152028776e-38
1.013545 -0.721991 0.415692 2.341805152028776e-38
0.997712 -0.719722 0.410828 2.341805152028776e-38
0.987303 -0.721212 0.408175 2.341805152028776e-38
0.982201 -0.726608 0.407759 2.341805152028776e-38
0.976310 -0.731405 0.407016 2.341805152028776e-38
0.970397 -0.736162 0.406264 2.341805152028776e-38
0.963711 -0.740302 0.405186 2.341805152028776e-38
0.958508 -0.745557 0.404731 2.341805152028776e-38
0.954007 -0.751383 0.404591 2.341805152028776e-38
0.949434 -0.757223 0.404461 2.341805152028776e-38
0.941873 -0.760656 0.403057 2.341805152028776e-38
0.933571 -0.763428 0.401328 2.341805152028776e-38
0.929656 -0.769762 0.401484 2.341805152028776e-38
0.928608 -0.778521 0.402892 2.341805152028776e-38
0.925282 -0.785490 0.403360 2.341805152028776e-38
0.921167 -0.791852 0.403511 2.341805152028776e-38
0.917009 -0.798198 0.403651 2.341805152028776e-38
0.911385 -0.803272 0.403152 2.341805152028776e-38
0.905733 -0.808311 0.402642 2.341805152028776e-38
0.900052 -0.813318 0.402124 2.341805152028776e-38
0.894990 -0.818978 0.401934 2.341805152028776e-38
0.889893 -0.824612 0.401734 2.341805152028776e-38
0.884069 -0.829568 0.401209 2.341805152028776e-38
0.878906 -0.835141 0.400988 2.341805152028776e-38
0.875078 -0.842003 0.401385 2.341805152028776e-38
0.870489 -0.848216 0.401469 2.341805152028776e-38
0.860420 -0.849098 0.399046 2.341805152028776e-38
0.890006 -0.889498 0.415099 2.341805152028776e-38
0.893086 -0.903966 0.418911 2.341805152028776e-38
2.132759 -1.351191 0.831014 2.341805152028776e-38
2.116820 -1.358582 0.827787 2.341805152028776e-38
2.094496 -1.361702 0.822041 2.341805152028776e-38
2.061103 -1.357303 0.811903 2.341805152028776e-38
1.035800 -0.726925 0.415839 2.341805152028776e-38
1.009794 -0.717692 0.407003 2.341805152028776e-38
0.997043 -0.717614 0.403466 2.341805152028776e-38
0.988936 -0.720773 0.401792 2.341805152028776e-38
0.983862 -0.726145 0.401371 2.341805152028776e-38
0.977970 -0.730947 0.400645 2.341805152028776e-38
0.972814 -0.736283 0.400220 2.341805152028776e-38
0.966121 -0.740432 0.399163 2.341805152028776e-38
0.962417 -0.746862 0.399342 2.341805152028776e-38
0.957924 -0.752692 0.399201 2.341805152028776e-38
0.951868 -0.757355 0.398448 2.341805152028776e-38
0.939858 -0.757220 0.395202 2.341805152028776e-38
0.931568 -0.759974 0.393504 2.341805152028776e-38
0.932072 -0.769923 0.395529 2.341805152028776e-38
0.931762 -0.779302 0.397232 2.341805152028776e-38
0.927737 -0.785646 0.397373 2.341805152028776e-38
0.924345 -0.792637 0.397837 2.341805152028776e-38
0.918749 -0.797751 0.397359 2.341805152028776e-38
0.914553 -0.804086 0.397492 2.341805152028776e-38
0.908184 -0.808508 0.396683 2.341805152028776e-38
0.903915 -0.814795 0.396796 2.341805152028776e-38
0.897465 -0.819170 0.395982 2.341805152028776e-38
0.892366 -0.824813 0.395790 2.341805152028776e-38
0.887233 -0.830429 0.395586 2.341805152028776e-38
0.883446 -0.837326 0.395992 2.341805152028776e-38
0.878235 -0.842895 0.395768 2.341805152028776e-38
0.872989 -0.848436 0.395534 2.341805152028776e-38
0.869683 -0.855999 0.396240 2.341805152028776e-38
0.920210 -0.917279 0.421626 2.341805152028776e-38
2.135120 -1.349813 0.817492 2.341805152028776e-38
2.116020 -1.355094 0.813057 2.341805152028776e-38
2.087298 -1.354057 0.804947 2.341805152028776e-38
1.059752 -0.732711 0.416386 2.341805152028776e-38
1.023435 -0.716643 0.403699 2.341805152028776e-38
1.006753 -0.713935 0.398691 2.341805152028776e-38
0.998642 -0.717165 0.397057 2.341805152028776e-38
0.991298 -0.720887 0.395721 2.341805152028776e-38
0.985478 -0.725681 0.394991 2.341805152028776e-38
0.979590 -0.730483 0.394277 2.341805152028776e-38
0.974435 -0.735824 0.393864 2.341805152028776e-38
0.969251 -0.741134 0.393441 2.341805152028776e-38
0.965545 -0.747578 0.393623 2.341805152028776e-38
0.961047 -0.753422 0.393488 2.341805152028776e-38
0.954265 -0.757481 0.392430 2.341805152028776e-38
0.943720 -0.758547 0.389851 2.341805152028776e-38
0.941318 -0.766127 0.390634 2.341805152028776e-38
0.938860 -0.773710 0.391406 2.341805152028776e-38
0.936345 -0.781296 0.392168 2.341805152028776e-38
0.930863 -0.786428 0.391696 2.341805152028776e-38
0.926043 -0.792177 0.391536 2.341805152028776e-38
0.921887 -0.798543 0.391681 2.341805152028776e-38
0.916256 -0.803637 0.391205 2.341805152028776e-38
0.912023 -0.809961 0.391330 2.341805152028776e-38
0.905622 -0.814357 0.390528 2.341805152028776e-38
0.899198 -0.818713 0.389719 2.341805152028776e-38
0.894103 -0.824362 0.389534 2.341805152028776e-38
0.888972 -0.829984 0.389338 2.341805152028776e-38
0.886575 -0.838195 0.390351 2.341805152028776e-38
0.878607 -0.841144 0.388916 2.341805152028776e-38
0.876793 -0.849996 0.390212 2.341805152028776e-38
0.896622 -0.880247 0.401243 2.341805152028776e-38
0.947831 -0.942380 0.426551 2.341805152028776e-38
2.131752 -1.344866 0.801869 2.341805152028776e-38
2.108681 -1.347507 0.795969 2.341805152028776e-38
2.075174 -1.343292 0.786166 2.341805152028776e-38
1.090102 -0.742593 0.419152 2.341805152028776e-38
1.037880 -0.716007 0.400585 2.341805152028776e-38
1.017995 -0.711265 0.394457 2.341805152028776e-38
1.007540 -0.712924 0.391954 2.341805152028776e-38
1.001750 -0.717819 0.391257 2.341805152028776e-38
0.992852 -0.720435 0.389342 2.341805152028776e-38
0.987031 -0.725233 0.388627 2.341805152028776e-38
0.981170 -0.730012 0.387914 2.341805152028776e-38
0.976016 -0.735358 0.387512 2.341805152028776e-38
0.971591 -0.741251 0.387403 2.341805152028776e-38
0.967131 -0.747122 0.387284 2.341805152028776e-38
0.963387 -0.753559 0.387457 2.341805152028776e-38
0.958107 -0.758797 0.387017 2.341805152028776e-38
0.951272 -0.762850 0.385984 2.341805152028776e-38
0.948109 -0.769871 0.386457 2.341805152028776e-38
0.942688 -0.775069 0.386015 2.341805152028776e-38
0.937971 -0.780845 0.385865 2.341805152028776e-38
0.933220 -0.786596 0.385705 2.341805152028776e-38
0.930602 -0.794186 0.386443 2.341805152028776e-38
0.925713 -0.799953 0.386289 2.341805152028776e-38
0.920790 -0.805694 0.386125 2.341805152028776e-38
0.915118 -0.810776 0.385650 2.341805152028776e-38
0.907999 -0.814549 0.384564 2.341805152028776e-38
0.902280 -0.819552 0.384070 2.341805152028776e-38
0.898606 -0.826486 0.384483 2.341805152028776e-38
0.892765 -0.831482 0.383993 2.341805152028776e-38
0.888284 -0.837749 0.384094 2.341805152028776e-38
0.878931 -0.839385 0.382085 2.341805152028776e-38
0.890167 -0.860836 0.389061 2.341805152028776e-38
0.930476 -0.911174 0.408902 2.341805152028776e-38
1.002651 -0.994360 0.443101 2.341805152028776e-38
2.133930 -1.343466 0.788419 2.341805152028776e-38
2.108420 -1.344570 0.781727 2.341805152028776e-38
1.063329 -0.722829 0.401572 2.341805152028776e-38
1.029202 -0.708522 0.390155 2.341805152028776e-38
1.017964 -0.709702 0.387392 2.341805152028776e-38
1.009843 -0.713007 0.385826 2.341805152028776e-38
1.004049 -0.717911 0.385146 2.341805152028776e-38
0.995913 -0.721097 0.383562 2.341805152028776e-38
0.988545 -0.724780 0.382268 2.341805152028776e-38
0.982702 -0.729543 0.381560 2.341805152028776e-38
0.977557 -0.734886 0.381165 2.341805152028776e-38
0.973895 -0.741362 0.381359 2.341805152028776e-38
0.969434 -0.747243 0.381247 2.341805152028776e-38
0.964186 -0.752514 0.380827 2.341805152028776e-38
0.958160 -0.757161 0.380101 2.341805152028776e-38
0.955085 -0.764165 0.380560 2.341805152028776e-38
0.950434 -0.770003 0.380436 2.341805152028776e-38
0.945748 -0.775817 0.380302 2.341805152028776e-38
0.941762 -0.782217 0.380456 2.341805152028776e-38
0.936271 -0.787371 0.380006 2.341805152028776e-38
0.932207 -0.793731 0.380139 2.341805152028776e-38
0.927341 -0.799485 0.379983 2.341805152028776e-38
0.923140 -0.805859 0.380122 2.341805152028776e-38
0.918180 -0.811584 0.379955 2.341805152028776e-38
0.912474 -0.816645 0.379482 2.341805152028776e-38
0.906741 -0.821670 0.378999 2.341805152028776e-38
0.901676 -0.827313 0.378806 2.341805152028776e-38
0.895128 -0.831672 0.378033 2.341805152028776e-38
0.890648 -0.837950 0.378136 2.341805152028776e-38
0.881283 -0.839594 0.376162 2.341805152028776e-38
0.897375 -0.865703 0.385099 2.341805152028776e-38
0.940518 -0.918759 0.405812 2.341805152028776e-38
2.131169 -1.339003 0.773227 2.341805152028776e-38
1.098467 -0.735773 0.405830 2.341805152028776e-38
1.046673 -0.710031 0.388150 2.341805152028776e-38
1.026739 -0.705363 0.382201 2.341805152028776e-38
1.017099 -0.707588 0.380058 2.341805152028776e-38
1.010548 -0.711983 0.379108 2.341805152028776e-38
1.004756 -0.716887 0.378443 2.341805152028776e-38
0.996617 -0.720073 0.376889 2.341805152028776e-38
0.990020 -0.724320 0.375913 2.341805152028776e-38
0.984944 -0.729657 0.375514 2.341805152028776e-38
0.979823 -0.734981 0.375115 2.341805152028776e-38
0.975401 -0.740889 0.375018 2.341805152028776e-38
0.970943 -0.746775 0.374911 2.341805152028776e-38
0.965696 -0.752050 0.374503 2.341805152028776e-38
0.961171 -0.757886 0.374378 2.341805152028776e-38
0.957359 -0.764296 0.374535 2.341805152028776e-38
0.954210 -0.771331 0.374995 2.341805152028776e-38
0.948776 -0.776558 0.374575 2.341805152028776e-38
0.944786 -0.782972 0.374730 2.341805152028776e-38
0.939289 -0.788141 0.374291 2.341805152028776e-38
0.936680 -0.795753 0.375010 2.341805152028776e-38
0.931828 -0.801505 0.374848 2.341805152028776e-38
0.926174 -0.806647 0.374406 2.341805152028776e-38
0.921927 -0.813018 0.374536 2.341805152028776e-38
0.915496 -0.817461 0.373783 2.341805152028776e-38
0.909756 -0.822500 0.373312 2.341805152028776e-38
0.903283 -0.826857 0.372540 2.341805152028776e-38
0.897454 -0.831856 0.372066 2.341805152028776e-38
0.895765 -0.840763 0.373335 2.341805152028776e-38
0.891920 -0.847707 0.373720 2.341805152028776e-38
0.888024 -0.854640 0.374095 2.341805152028776e-38
2.123438 -1.331475 0.756378 2.341805152028776e-38
1.070576 -0.715623 0.388298 2.341805152028776e-38
1.040998 -0.704738 0.378993 2.341805152028776e-38
1.025800 -0.703281 0.374876 2.341805152028776e-38
1.016947 -0.706041 0.373061 2.341805152028776e-38
1.011208 -0.710953 0.372404 2.341805152028776e-38
1.006199 -0.716413 0.372043 2.341805152028776e-38
0.998055 -0.719602 0.370519 2.341805152028776e-38
0.990681 -0.723289 0.369274 2.341805152028776e-38
0.984840 -0.728057 0.368598 2.341805152028776e-38
0.982043 -0.735080 0.369065 2.341805152028776e-38
0.977630 -0.740987 0.368969 2.341805152028776e-38
0.972412 -0.746300 0.368581 2.341805152028776e-38
0.967166 -0.751580 0.368183 2.341805152028776e-38
0.962644 -0.757421 0.368064 2.341805152028776e-38
0.958837 -0.763835 0.368223 2.341805152028776e-38
0.956465 -0.771451 0.368955 2.341805152028776e-38
0.951028 -0.776687 0.368546 2.341805152028776e-38
0.947040 -0.783111 0.368702 2.341805152028776e-38
0.943743 -0.790134 0.369136 2.341805152028776e-38
0.941128 -0.797769 0.369847 2.341805152028776e-38
0.934820 -0.802287 0.369113 2.341805152028776e-38
0.928451 -0.806799 0.368388 2.341805152028776e-38
0.922767 -0.811915 0.367947 2.341805152028776e-38
0.918485 -0.818270 0.368069 2.341805152028776e-38
0.911316 -0.822040 0.367036 2.341805152028776e-38
0.905550 -0.827048 0.366567 2.341805152028776e-38
0.899743 -0.832033 0.366094 2.341805152028776e-38
0.902259 -0.844880 0.369063 2.341805152028776e-38
0.899087 -0.852520 0.369731 2.341805152028776e-38
0.888943 -0.853521 0.367530 2.341805152028776e-38
1.100223 -0.724658 0.390201 2.341805152028776e-38
1.054485 -0.703445 0.375381 2.341805152028776e-38
1.034459 -0.698902 0.369642 2.341805152028776e-38
1.024019 -0.700650 0.367301 2.341805152028776e-38
1.018324 -0.705580 0.366655 2.341805152028776e-38
1.013392 -0.711023 0.366285 2.341805152028776e-38
1.007603 -0.715932 0.365648 2.341805152028776e-38
1.000231 -0.719686 0.364437 2.341805152028776e-38
0.994401 -0.724511 0.363784 2.341805152028776e-38
0.987777 -0.728728 0.362839 2.341805152028776e-38
0.984212 -0.735191 0.363020 2.341805152028776e-38
0.979823 -0.741080 0.362916 2.341805152028776e-38
0.974603 -0.746402 0.362538 2.341805152028776e-38
0.969354 -0.751692 0.362151 2.341805152028776e-38
0.965586 -0.758134 0.362321 2.341805152028776e-38
0.961025 -0.763965 0.362199 2.341805152028776e-38
0.955682 -0.769171 0.361784 2.341805152028776e-38
0.951014 -0.774993 0.361663 2.341805152028776e-38
0.948517 -0.782634 0.362387 2.341805152028776e-38
0.946699 -0.790892 0.363383 2.341805152028776e-38
0.942619 -0.797302 0.363521 2.341805152028776e-38
0.935582 -0.801200 0.362520 2.341805152028776e-38
0.930692 -0.806945 0.362364 2.341805152028776e-38
0.925726 -0.812704 0.362216 2.341805152028776e-38
0.920724 -0.818435 0.362059 2.341805152028776e-38
0.915688 -0.824140 0.361892 2.341805152028776e-38
0.909907 -0.829171 0.361433 2.341805152028776e-38
0.899163 -0.829610 0.358995 2.341805152028776e-38
0.923461 -0.862749 0.370639 2.341805152028776e-38
0.931337 -0.881070 0.375797 2.341805152028776e-38
0.923775 -0.884923 0.374754 2.341805152028776e-38
1.078416 -0.708882 0.375290 2.341805152028776e-38
1.047871 -0.697646 0.366029 2.341805152028776e-38
1.033420 -0.696817 0.362345 2.341805152028776e-38
1.024565 -0.699638 0.360606 2.341805152028776e-38
1.018873 -0.704568 0.359976 2.341805152028776e-38
1.015518 -0.711112 0.360173 2.341805152028776e-38
1.010534 -0.716556 0.359816 2.341805152028776e-38
1.003932 -0.720884 0.358908 2.341805152028776e-38
0.996538 -0.724599 0.357713 2.341805152028776e-38
0.990681 -0.729393 0.357067 2.341805152028776e-38
0.987884 -0.736444 0.357527 2.341805152028776e-38
0.982738 -0.741755 0.357141 2.341805152028776e-38
0.978283 -0.747665 0.357048 2.341805152028776e-38
0.973785 -0.753561 0.356950 2.341805152028776e-38
0.968495 -0.758841 0.356564 2.341805152028776e-38
0.962425 -0.763492 0.355891 2.341805152028776e-38
0.958581 -0.769906 0.356043 2.341805152028776e-38
0.953188 -0.775110 0.355639 2.341805152028776e-38
0.949213 -0.781539 0.355798 2.341805152028776e-38
0.945195 -0.787953 0.355948 2.341805152028776e-38
0.942602 -0.795589 0.356643 2.341805152028776e-38
0.937031 -0.800731 0.356219 2.341805152028776e-38
0.932886 -0.807095 0.356340 2.341805152028776e-38
0.927929 -0.812853 0.356194 2.341805152028776e-38
0.924364 -0.819870 0.356598 2.341805152028776e-38
0.919318 -0.825592 0.356437 2.341805152028776e-38
0.912816 -0.829995 0.355712 2.341805152028776e-38
0.902053 -0.830447 0.353318 2.341805152028776e-38
0.952452 -0.887826 0.375002 2.341805152028776e-38
0.949023 -0.895773 0.375647 2.341805152028776e-38
0.943449 -0.901724 0.375451 2.341805152028776e-38
1.105634 -0.716249 0.376112 2.341805152028776e-38
1.064489 -0.698401 0.363421 2.341805152028776e-38
1.044389 -0.693968 0.357876 2.341805152028776e-38
1.034725 -0.696337 0.355906 2.341805152028776e-38
1.026658 -0.699703 0.354475 2.341805152028776e-38
1.021753 -0.705188 0.354134 2.341805152028776e-38
1.016820 -0.710644 0.353784 2.341805152028776e-38
1.011858 -0.716070 0.353425 2.341805152028776e-38
1.005258 -0.720397 0.352535 2.341805152028776e-38
0.999417 -0.725245 0.351912 2.341805152028776e-38
0.992778 -0.729483 0.351007 2.341805152028776e-38
0.988440 -0.735395 0.350915 2.341805152028776e-38
0.984067 -0.741285 0.350814 2.341805152028776e-38
0.980405 -0.747755 0.350987 2.341805152028776e-38
0.976667 -0.754248 0.351168 2.341805152028776e-38
0.972130 -0.760135 0.351066 2.341805152028776e-38
0.966048 -0.764804 0.350408 2.341805152028776e-38
0.960697 -0.770033 0.350015 2.341805152028776e-38
0.955318 -0.775229 0.349613 2.341805152028776e-38
0.951352 -0.781659 0.349770 2.341805152028776e-38
0.946595 -0.787467 0.349648 2.341805152028776e-38
0.943275 -0.794489 0.350062 2.341805152028776e-38
0.939173 -0.800879 0.350194 2.341805152028776e-38
0.933571 -0.805995 0.349771 2.341805152028776e-38
0.928646 -0.811730 0.349622 2.341805152028776e-38
0.925091 -0.818747 0.350022 2.341805152028776e-38
0.920053 -0.824471 0.349868 2.341805152028776e-38
0.919255 -0.834046 0.351338 2.341805152028776e-38
0.922626 -0.847552 0.354431 2.341805152028776e-38
0.991395 -0.922083 0.382814 2.341805152028776e-38
1.013681 -0.954679 0.393506 2.341805152028776e-38
1.105605 -1.067627 0.433841 2.341805152028776e-38
1.258996 -1.278360 0.505194 2.341805152028776e-38
1.081107 -0.699053 0.360698 2.341805152028776e-38
1.056101 -0.691607 0.353627 2.341805152028776e-38
1.042453 -0.691350 0.350325 2.341805152028776e-38
1.037589 -0.696925 0.350011 2.341805152028776e-38
1.029511 -0.700305 0.348610 2.341805152028776e-38
1.024601 -0.705803 0.348279 2.341805152028776e-38
1.018083 -0.710170 0.347399 2.341805152028776e-38
1.013122 -0.715600 0.347051 2.341805152028776e-38
1.008111 -0.721024 0.346705 2.341805152028776e-38
1.002263 -0.725886 0.346097 2.341805152028776e-38
0.994063 -0.728999 0.344673 2.341805152028776e-38
0.985088 -0.731470 0.342971 2.341805152028776e-38
0.979199 -0.736178 0.342338 2.341805152028776e-38
0.979419 -0.745513 0.343849 2.341805152028776e-38
0.978754 -0.754343 0.345104 2.341805152028776e-38
0.974975 -0.760831 0.345277 2.341805152028776e-38
0.969642 -0.766111 0.344903 2.341805152028776e-38
0.964281 -0.771358 0.344519 2.341805152028776e-38
0.958892 -0.776571 0.344128 2.341805152028776e-38
0.953454 -0.781774 0.343737 2.341805152028776e-38
0.949438 -0.788206 0.343889 2.341805152028776e-38
0.945379 -0.794622 0.344032 2.341805152028776e-38
0.940544 -0.800398 0.343897 2.341805152028776e-38
0.935674 -0.806147 0.343753 2.341805152028776e-38
0.930043 -0.811236 0.343332 2.341805152028776e-38
0.926497 -0.818256 0.343728 2.341805152028776e-38
0.917870 -0.820773 0.342241 2.341805152028776e-38
0.924248 -0.836799 0.346367 2.341805152028776e-38
0.954612 -0.875075 0.359576 2.341805152028776e-38
1.027624 -0.953748 0.389074 2.341805152028776e-38
1.073888 -1.074289 0.420051 2.341805152028776e-38
1.108341 -0.706278 0.361276 2.341805152028776e-38
1.069402 -0.690214 0.349835 2.341805152028776e-38
1.054092 -0.689028 0.346073 2.341805152028776e-38
1.045265 -0.691949 0.344423 2.341805152028776e-38
1.038018 -0.695898 0.343309 2.341805152028776e-38
1.031533 -0.700360 0.342467 2.341805152028776e-38
1.025827 -0.705321 0.341880 2.341805152028776e-38
1.021681 -0.711345 0.341815 2.341805152028776e-38
