VERSION .7
FIELDS x y z rgb
SIZE 4 4 4 4
TYPE F F F F
COUNT 1 1 1 1
WIDTH 961
HEIGHT 1
VIEWPOINT 0 0 0 1 0 0 0
POINTS 961
DATA ascii
1.747577 0.013920 0.849134 2.341805152028776e-38
1.058560 -0.014054 0.514376 2.341805152028776e-38
1.046778 -0.019458 0.508697 2.341805152028776e-38
1.041264 -0.024889 0.506077 2.341805152028776e-38
1.037519 -0.030315 0.504332 2.341805152028776e-38
1.034645 -0.035734 0.503024 2.341805152028776e-38
1.030844 -0.041089 0.501280 2.341805152028776e-38
1.030609 -0.046567 0.501285 2.341805152028776e-38
1.028548 -0.051956 0.500415 2.341805152028776e-38
1.027356 -0.057375 0.499983 2.341805152028776e-38
1.025238 -0.062730 0.499115 2.341805152028776e-38
1.024887 -0.068186 0.499120 2.341805152028776e-38
1.023610 -0.073577 0.498689 2.341805152028776e-38
1.024097 -0.079097 0.499132 2.341805152028776e-38
1.023658 -0.084553 0.499138 2.341805152028776e-38
1.024982 -0.090167 0.500018 2.341805152028776e-38
1.019110 -0.095131 0.497402 2.341805152028776e-38
1.015900 -0.100304 0.496096 2.341805152028776e-38
1.018031 -0.106006 0.497413 2.341805152028776e-38
1.020130 -0.111737 0.498729 2.341805152028776e-38
1.020410 -0.117291 0.499170 2.341805152028776e-38
1.017980 -0.122533 0.498300 2.341805152028776e-38
1.016415 -0.127867 0.497866 2.341805152028776e-38
1.027308 -0.134831 0.503551 2.341805152028776e-38
1.936843 0.087279 0.929259 2.341805152028776e-38
1.873308 0.074466 0.898562 2.341805152028776e-38
1.907928 0.065717 0.914976 2.341805152028776e-38
1.951520 0.056867 0.935713 2.341805152028776e-38
1.876971 0.044743 0.899834 2.341805152028776e-38
1.741941 0.032293 0.834999 2.341805152028776e-38
1.741188 0.023054 0.834563 2.341805152028776e-38
1.700708 0.013510 0.815112 2.341805152028776e-38
1.118175 -0.008883 0.535917 2.341805152028776e-38
1.058599 -0.014016 0.507394 2.341805152028776e-38
1.046787 -0.019406 0.501777 2.341805152028776e-38
1.043062 -0.024864 0.500052 2.341805152028776e-38
1.038407 -0.030259 0.497895 2.341805152028776e-38
1.035526 -0.035668 0.496603 2.341805152028776e-38
1.036221 -0.041191 0.497040 2.341805152028776e-38
1.035085 -0.046643 0.496614 2.341805152028776e-38
1.032118 -0.051995 0.495323 2.341805152028776e-38
1.030924 -0.057419 0.494898 2.341805152028776e-38
1.028801 -0.062779 0.494041 2.341805152028776e-38
1.028450 -0.068239 0.494048 2.341805152028776e-38
1.026270 -0.073570 0.493192 2.341805152028776e-38
1.026760 -0.079090 0.493632 2.341805152028776e-38
1.025422 -0.084472 0.493209 2.341805152028776e-38
1.024056 -0.089845 0.492785 2.341805152028776e-38
1.021764 -0.095124 0.491929 2.341805152028776e-38
1.019444 -0.100385 0.491073 2.341805152028776e-38
1.019788 -0.105906 0.491513 2.341805152028776e-38
1.018309 -0.111241 0.491089 2.341805152028776e-38
1.017698 -0.116669 0.491097 2.341805152028776e-38
1.017952 -0.122205 0.491536 2.341805152028776e-38
1.016388 -0.127526 0.491110 2.341805152028776e-38
1.015689 -0.132954 0.491116 2.341805152028776e-38
1.887604 0.084832 0.893227 2.341805152028776e-38
1.881703 0.074601 0.890234 2.341805152028776e-38
1.907371 0.065523 0.902200 2.341805152028776e-38
1.912210 0.055574 0.904335 2.341805152028776e-38
1.821192 0.043299 0.861169 2.341805152028776e-38
1.740947 0.032189 0.823131 2.341805152028776e-38
1.763693 0.023291 0.833815 2.341805152028776e-38
1.770120 0.014025 0.836806 2.341805152028776e-38
1.062193 -0.014027 0.502169 2.341805152028776e-38
1.050353 -0.019421 0.496614 2.341805152028776e-38
1.046620 -0.024883 0.494905 2.341805152028776e-38
1.045570 -0.030387 0.494478 2.341805152028776e-38
1.042684 -0.035819 0.493197 2.341805152028776e-38
1.040673 -0.041258 0.492343 2.341805152028776e-38
1.036827 -0.046597 0.490634 2.341805152028776e-38
1.033857 -0.051942 0.489353 2.341805152028776e-38
1.031759 -0.057311 0.488506 2.341805152028776e-38
1.030534 -0.062715 0.488088 2.341805152028776e-38
1.031085 -0.068230 0.488525 2.341805152028776e-38
1.030704 -0.073690 0.488536 2.341805152028776e-38
1.027590 -0.078942 0.487264 2.341805152028776e-38
1.027152 -0.084388 0.487275 2.341805152028776e-38
1.025784 -0.089756 0.486859 2.341805152028776e-38
1.024388 -0.095114 0.486442 2.341805152028776e-38
1.019365 -0.100110 0.484316 2.341805152028776e-38
1.018813 -0.105524 0.484328 2.341805152028776e-38
1.018233 -0.110938 0.484339 2.341805152028776e-38
1.020317 -0.116660 0.485632 2.341805152028776e-38
1.017882 -0.121874 0.484788 2.341805152028776e-38
1.015419 -0.127069 0.483943 2.341805152028776e-38
1.015620 -0.132596 0.484380 2.341805152028776e-38
1.924902 0.086290 0.898434 2.341805152028776e-38
1.920804 0.075959 0.896317 2.341805152028776e-38
1.913933 0.065583 0.892933 2.341805152028776e-38
1.907006 0.055283 0.889549 2.341805152028776e-38
1.877372 0.044522 0.875601 2.341805152028776e-38
1.841334 0.033960 0.858696 2.341805152028776e-38
1.872301 0.024663 0.873062 2.341805152028776e-38
1.119274 -0.008846 0.521893 2.341805152028776e-38
1.063025 -0.014003 0.495693 2.341805152028776e-38
1.052062 -0.019403 0.490623 2.341805152028776e-38
1.049226 -0.024883 0.489356 2.341805152028776e-38
1.048174 -0.030386 0.488935 2.341805152028776e-38
1.043469 -0.035755 0.486824 2.341805152028776e-38
1.040548 -0.041149 0.485558 2.341805152028776e-38
1.038505 -0.046555 0.484715 2.341805152028776e-38
1.036434 -0.051941 0.483872 2.341805152028776e-38
1.033430 -0.057258 0.482606 2.341805152028776e-38
1.034921 -0.062822 0.483454 2.341805152028776e-38
1.032766 -0.068165 0.482610 2.341805152028776e-38
1.031486 -0.073554 0.482190 2.341805152028776e-38
1.029275 -0.078865 0.481346 2.341805152028776e-38
1.028843 -0.084304 0.481348 2.341805152028776e-38
1.029284 -0.089822 0.481774 2.341805152028776e-38
1.026080 -0.095018 0.480520 2.341805152028776e-38
1.022850 -0.100186 0.479266 2.341805152028776e-38
1.022298 -0.105604 0.479281 2.341805152028776e-38
1.022618 -0.111121 0.479718 2.341805152028776e-38
1.022908 -0.116648 0.480155 2.341805152028776e-38
1.019568 -0.121754 0.478901 2.341805152028776e-38
1.017102 -0.126945 0.478069 2.341805152028776e-38
1.015507 -0.132233 0.477660 2.341805152028776e-38
1.937800 0.086650 0.891990 2.341805152028776e-38
1.942771 0.076635 0.894073 2.341805152028776e-38
1.940426 0.066323 0.892814 2.341805152028776e-38
1.935301 0.055962 0.890303 2.341805152028776e-38
1.925579 0.045550 0.885703 2.341805152028776e-38
1.912168 0.035177 0.879433 2.341805152028776e-38
1.893250 0.024876 0.870657 2.341805152028776e-38
1.100217 -0.008673 0.505933 2.341805152028776e-38
1.059275 -0.013918 0.487133 2.341805152028776e-38
1.051011 -0.019335 0.483375 2.341805152028776e-38
1.048169 -0.024795 0.482123 2.341805152028776e-38
1.046207 -0.030253 0.481290 2.341805152028776e-38
1.043308 -0.035660 0.480039 2.341805152028776e-38
1.042197 -0.041111 0.479624 2.341805152028776e-38
1.041057 -0.046552 0.479210 2.341805152028776e-38
1.039889 -0.051984 0.478795 2.341805152028776e-38
1.035970 -0.057255 0.477128 2.341805152028776e-38
1.034746 -0.062654 0.476714 2.341805152028776e-38
1.031680 -0.067924 0.475465 2.341805152028776e-38
1.029494 -0.073229 0.474633 2.341805152028776e-38
1.029091 -0.078654 0.474637 2.341805152028776e-38
1.031377 -0.084301 0.475894 2.341805152028776e-38
1.030011 -0.089662 0.475480 2.341805152028776e-38
1.026808 -0.094846 0.474230 2.341805152028776e-38
1.022675 -0.099913 0.472562 2.341805152028776e-38
1.022131 -0.105314 0.472565 2.341805152028776e-38
1.023366 -0.110911 0.473402 2.341805152028776e-38
1.021858 -0.116221 0.472993 2.341805152028776e-38
1.017612 -0.121202 0.471339 2.341805152028776e-38
1.016045 -0.126481 0.470939 2.341805152028776e-38
1.015352 -0.131868 0.470956 2.341805152028776e-38
1.973430 0.088023 0.895760 2.341805152028776e-38
1.973869 0.077666 0.895751 2.341805152028776e-38
1.972432 0.067248 0.894917 2.341805152028776e-38
1.971851 0.056876 0.894498 2.341805152028776e-38
1.967572 0.046427 0.892427 2.341805152028776e-38
1.955953 0.035892 0.887054 2.341805152028776e-38
1.922421 0.025196 0.871771 2.341805152028776e-38
1.088309 -0.008558 0.493493 2.341805152028776e-38
1.060018 -0.013893 0.480692 2.341805152028776e-38
1.051734 -0.019300 0.476977 2.341805152028776e-38
1.049797 -0.024771 0.476154 2.341805152028776e-38
1.047830 -0.030223 0.475331 2.341805152028776e-38
1.045835 -0.035657 0.474509 2.341805152028776e-38
1.044722 -0.041107 0.474100 2.341805152028776e-38
1.045399 -0.046629 0.474517 2.341805152028776e-38
1.042409 -0.051979 0.473283 2.341805152028776e-38
1.039392 -0.057301 0.472050 2.341805152028776e-38
1.035437 -0.062539 0.470403 2.341805152028776e-38
1.034183 -0.067919 0.469996 2.341805152028776e-38
1.029267 -0.073031 0.467937 2.341805152028776e-38
1.029774 -0.078511 0.468356 2.341805152028776e-38
1.034790 -0.084370 0.470841 2.341805152028776e-38
1.036144 -0.089972 0.471673 2.341805152028776e-38
1.028398 -0.094758 0.468375 2.341805152028776e-38
1.024256 -0.099821 0.466728 2.341805152028776e-38
1.025525 -0.105404 0.467560 2.341805152028776e-38
1.024953 -0.110810 0.467565 2.341805152028776e-38
1.023447 -0.116114 0.467156 2.341805152028776e-38
1.019200 -0.121086 0.465508 2.341805152028776e-38
1.017641 -0.126356 0.465098 2.341805152028776e-38
1.017861 -0.131851 0.465514 2.341805152028776e-38
2.010066 0.089432 0.899585 2.341805152028776e-38
2.012336 0.078982 0.900390 2.341805152028776e-38
2.015463 0.068543 0.901604 2.341805152028776e-38
2.015798 0.057997 0.901595 2.341805152028776e-38
2.008776 0.047280 0.898323 2.341805152028776e-38
1.999871 0.036606 0.894235 2.341805152028776e-38
1.079952 -0.008471 0.482826 2.341805152028776e-38
1.061635 -0.013879 0.474665 2.341805152028776e-38
1.054245 -0.019297 0.471402 2.341805152028776e-38
1.052303 -0.024768 0.470589 2.341805152028776e-38
1.047595 -0.030141 0.468552 2.341805152028776e-38
1.046508 -0.035590 0.468149 2.341805152028776e-38
1.045393 -0.041030 0.467746 2.341805152028776e-38
1.044249 -0.046461 0.467343 2.341805152028776e-38
1.042165 -0.051837 0.466534 2.341805152028776e-38
1.038230 -0.057094 0.464908 2.341805152028776e-38
1.037002 -0.062478 0.464507 2.341805152028776e-38
1.035746 -0.067852 0.464107 2.341805152028776e-38
1.028998 -0.072830 0.461258 2.341805152028776e-38
1.029508 -0.078296 0.461674 2.341805152028776e-38
1.032719 -0.083993 0.463316 2.341805152028776e-38
1.031351 -0.089335 0.462916 2.341805152028776e-38
1.029045 -0.094584 0.462108 2.341805152028776e-38
1.027622 -0.099902 0.461708 2.341805152028776e-38
1.027986 -0.105397 0.462125 2.341805152028776e-38
1.028322 -0.110902 0.462541 2.341805152028776e-38
1.023185 -0.115800 0.460508 2.341805152028776e-38
1.019838 -0.120866 0.459290 2.341805152028776e-38
1.017372 -0.126015 0.458480 2.341805152028776e-38
1.017596 -0.131496 0.458894 2.341805152028776e-38
2.023023 0.089785 0.892571 2.341805152028776e-38
2.027122 0.079365 0.894184 2.341805152028776e-38
2.026595 0.068752 0.893780 2.341805152028776e-38
2.026012 0.058149 0.893376 2.341805152028776e-38
2.023544 0.047512 0.892165 2.341805152028776e-38
2.012785 0.036753 0.887324 2.341805152028776e-38
1.120939 -0.002924 0.494078 2.341805152028776e-38
1.077902 -0.008434 0.475121 2.341805152028776e-38
1.064119 -0.013878 0.469071 2.341805152028776e-38
1.057627 -0.019312 0.466248 2.341805152028776e-38
1.053853 -0.024744 0.464636 2.341805152028776e-38
1.050965 -0.030164 0.463426 2.341805152028776e-38
1.048050 -0.035555 0.462216 2.341805152028776e-38
1.046935 -0.040989 0.461814 2.341805152028776e-38
1.046707 -0.046455 0.461814 2.341805152028776e-38
1.041879 -0.051693 0.459800 2.341805152028776e-38
1.037936 -0.056936 0.458195 2.341805152028776e-38
1.037620 -0.062359 0.458205 2.341805152028776e-38
1.037276 -0.067783 0.458214 2.341805152028776e-38
1.031426 -0.072821 0.455804 2.341805152028776e-38
1.030114 -0.078148 0.455412 2.341805152028776e-38
1.035158 -0.083983 0.457843 2.341805152028776e-38
1.032876 -0.089246 0.457047 2.341805152028776e-38
1.030566 -0.094490 0.456252 2.341805152028776e-38
1.028230 -0.099715 0.455456 2.341805152028776e-38
1.028598 -0.105201 0.455871 2.341805152028776e-38
1.028937 -0.110697 0.456286 2.341805152028776e-38
1.025609 -0.115791 0.455086 2.341805152028776e-38
1.022255 -0.120857 0.453886 2.341805152028776e-38
1.018877 -0.125895 0.452686 2.341805152028776e-38
1.020011 -0.131489 0.453502 2.341805152028776e-38
2.030408 0.089905 0.883185 2.341805152028776e-38
2.029934 0.079292 0.882783 2.341805152028776e-38
2.028487 0.068657 0.881983 2.341805152028776e-38
2.028818 0.058095 0.881981 2.341805152028776e-38
2.026344 0.047467 0.880783 2.341805152028776e-38
2.012809 0.036668 0.874803 2.341805152028776e-38
1.108831 -0.002885 0.481837 2.341805152028776e-38
1.076701 -0.008405 0.467889 2.341805152028776e-38
1.062887 -0.013830 0.461911 2.341805152028776e-38
1.058215 -0.019278 0.459919 2.341805152028776e-38
1.058100 -0.024786 0.459920 2.341805152028776e-38
1.054289 -0.030189 0.458327 2.341805152028776e-38
1.053200 -0.035647 0.457930 2.341805152028776e-38
1.051167 -0.041060 0.457134 2.341805152028776e-38
1.049105 -0.046454 0.456339 2.341805152028776e-38
1.043352 -0.051647 0.453949 2.341805152028776e-38
1.040321 -0.056933 0.452755 2.341805152028776e-38
1.039094 -0.062301 0.452358 2.341805152028776e-38
1.038754 -0.067719 0.452360 2.341805152028776e-38
1.036556 -0.073007 0.451564 2.341805152028776e-38
1.037075 -0.078485 0.451964 2.341805152028776e-38
1.036651 -0.083898 0.451965 2.341805152028776e-38
1.037109 -0.089391 0.452372 2.341805152028776e-38
1.033881 -0.094561 0.451190 2.341805152028776e-38
1.032453 -0.099879 0.450806 2.341805152028776e-38
1.031910 -0.105281 0.450820 2.341805152028776e-38
1.032250 -0.110782 0.451233 2.341805152028776e-38
1.030738 -0.116087 0.450849 2.341805152028776e-38
1.027377 -0.121168 0.449666 2.341805152028776e-38
1.023080 -0.126108 0.448085 2.341805152028776e-38
1.024217 -0.131712 0.448896 2.341805152028776e-38
2.028567 0.089617 0.869808 2.341805152028776e-38
2.029926 0.079109 0.870197 2.341805152028776e-38
2.029393 0.068530 0.869798 2.341805152028776e-38
2.026967 0.057907 0.868612 2.341805152028776e-38
2.020809 0.047228 0.865852 2.341805152028776e-38
2.002647 0.036399 0.857974 2.341805152028776e-38
1.103060 -0.002864 0.472493 2.341805152028776e-38
1.074535 -0.008369 0.460288 2.341805152028776e-38
1.066205 -0.013841 0.456745 2.341805152028776e-38
1.063361 -0.019327 0.455565 2.341805152028776e-38
1.060488 -0.024785 0.454385 2.341805152028776e-38
1.058507 -0.030240 0.453600 2.341805152028776e-38
1.054660 -0.035614 0.452027 2.341805152028776e-38
1.051704 -0.040986 0.450848 2.341805152028776e-38
1.050557 -0.046411 0.450458 2.341805152028776e-38
1.046628 -0.051690 0.448886 2.341805152028776e-38
1.042672 -0.056931 0.447314 2.341805152028776e-38
1.041443 -0.062298 0.446923 2.341805152028776e-38
1.042021 -0.067776 0.447320 2.341805152028776e-38
1.040735 -0.073134 0.446930 2.341805152028776e-38
1.040339 -0.078552 0.446933 2.341805152028776e-38
1.039914 -0.083970 0.446936 2.341805152028776e-38
1.038546 -0.089309 0.446545 2.341805152028776e-38
1.036234 -0.094555 0.445760 2.341805152028776e-38
1.034811 -0.099870 0.445368 2.341805152028776e-38
1.034275 -0.105269 0.445370 2.341805152028776e-38
1.033711 -0.110668 0.445371 2.341805152028776e-38
1.033110 -0.116071 0.445389 2.341805152028776e-38
1.030656 -0.121260 0.444618 2.341805152028776e-38
1.027263 -0.126317 0.443454 2.341805152028776e-38
1.025668 -0.131580 0.443077 2.341805152028776e-38
2.028482 0.089407 0.857253 2.341805152028776e-38
2.028922 0.078888 0.857246 2.341805152028776e-38
2.027465 0.068307 0.856461 2.341805152028776e-38
2.026873 0.057771 0.856065 2.341805152028776e-38
2.017938 0.047052 0.852171 2.341805152028776e-38
1.098144 -0.002844 0.463612 2.341805152028776e-38
1.076004 -0.008361 0.454278 2.341805152028776e-38
1.067655 -0.013828 0.450779 2.341805152028776e-38
1.062963 -0.019275 0.448836 2.341805152028776e-38
1.060085 -0.024718 0.447672 2.341805152028776e-38
1.057179 -0.030132 0.446507 2.341805152028776e-38
1.056086 -0.035580 0.446122 2.341805152028776e-38
1.054045 -0.040983 0.445348 2.341805152028776e-38
1.052896 -0.046407 0.444963 2.341805152028776e-38
1.050799 -0.051777 0.444189 2.341805152028776e-38
1.045915 -0.056977 0.442249 2.341805152028776e-38
1.043764 -0.062294 0.441476 2.341805152028776e-38
1.043424 -0.067712 0.441481 2.341805152028776e-38
1.043056 -0.073130 0.441487 2.341805152028776e-38
1.040823 -0.078409 0.440714 2.341805152028776e-38
1.040399 -0.083818 0.440719 2.341805152028776e-38
1.039029 -0.089148 0.440336 2.341805152028776e-38
1.036714 -0.094385 0.439562 2.341805152028776e-38
1.034373 -0.099602 0.438789 2.341805152028776e-38
1.034755 -0.105080 0.439182 2.341805152028776e-38
1.035108 -0.110568 0.439575 2.341805152028776e-38
1.035432 -0.116065 0.439967 2.341805152028776e-38
1.032066 -0.121142 0.438803 2.341805152028776e-38
1.028676 -0.126190 0.437638 2.341805152028776e-38
1.027086 -0.131445 0.437256 2.341805152028776e-38
2.028322 0.089194 0.844723 2.341805152028776e-38
2.027838 0.078664 0.844329 2.341805152028776e-38
2.029144 0.068206 0.844704 2.341805152028776e-38
2.021167 0.057476 0.841238 2.341805152028776e-38
2.006671 0.046682 0.835086 2.341805152028776e-38
1.155948 0.002987 0.480915 2.341805152028776e-38
1.095011 -0.002830 0.455563 2.341805152028776e-38
1.074670 -0.008331 0.447114 2.341805152028776e-38
1.067227 -0.013790 0.444042 2.341805152028776e-38
1.064371 -0.019256 0.442892 2.341805152028776e-38
1.063333 -0.024737 0.442511 2.341805152028776e-38
1.059497 -0.030129 0.440978 2.341805152028776e-38
1.058403 -0.035576 0.440598 2.341805152028776e-38
1.058203 -0.041050 0.440603 2.341805152028776e-38
1.057974 -0.046524 0.440608 2.341805152028776e-38
1.054028 -0.051817 0.439078 2.341805152028776e-38
1.049133 -0.057021 0.437163 2.341805152028776e-38
1.046978 -0.062343 0.436402 2.341805152028776e-38
1.045717 -0.067706 0.436025 2.341805152028776e-38
1.044428 -0.073059 0.435648 2.341805152028776e-38
1.043111 -0.078403 0.435271 2.341805152028776e-38
1.041767 -0.083737 0.434894 2.341805152028776e-38
1.040396 -0.089063 0.434518 2.341805152028776e-38
1.038997 -0.094378 0.434141 2.341805152028776e-38
1.036651 -0.099597 0.433380 2.341805152028776e-38
1.036117 -0.104982 0.433387 2.341805152028776e-38
1.036473 -0.110465 0.433778 2.341805152028776e-38
1.035881 -0.115855 0.433784 2.341805152028776e-38
1.033428 -0.121031 0.433021 2.341805152028776e-38
1.030949 -0.126187 0.432258 2.341805152028776e-38
1.030275 -0.131558 0.432262 2.341805152028776e-38
2.030856 0.089102 0.833363 2.341805152028776e-38
2.027590 0.078476 0.831847 2.341805152028776e-38
2.018720 0.067703 0.828055 2.341805152028776e-38
2.004244 0.056867 0.821986 2.341805152028776e-38
1.979535 0.045948 0.811745 2.341805152028776e-38
1.131596 0.002918 0.463909 2.341805152028776e-38
1.088108 -0.002806 0.446081 2.341805152028776e-38
1.072351 -0.008295 0.439632 2.341805152028776e-38
1.068593 -0.013777 0.438115 2.341805152028776e-38
1.066657 -0.019255 0.437356 2.341805152028776e-38
1.063769 -0.024692 0.436218 2.341805152028776e-38
1.061777 -0.030126 0.435459 2.341805152028776e-38
1.059759 -0.035542 0.434700 2.341805152028776e-38
1.060486 -0.041045 0.435079 2.341805152028776e-38
1.058411 -0.046437 0.434320 2.341805152028776e-38
1.054459 -0.051719 0.432807 2.341805152028776e-38
1.050479 -0.056964 0.431297 2.341805152028776e-38
1.050167 -0.062390 0.431306 2.341805152028776e-38
1.048904 -0.067757 0.430936 2.341805152028776e-38
1.047613 -0.073115 0.430566 2.341805152028776e-38
1.043526 -0.078256 0.429058 2.341805152028776e-38
1.043103 -0.083655 0.429068 2.341805152028776e-38
1.043574 -0.089133 0.429457 2.341805152028776e-38
1.041251 -0.094370 0.428708 2.341805152028776e-38
1.038902 -0.099588 0.427960 2.341805152028776e-38
1.038367 -0.104974 0.427969 2.341805152028776e-38
1.039645 -0.110555 0.428738 2.341805152028776e-38
1.039053 -0.115950 0.428747 2.341805152028776e-38
1.037514 -0.121239 0.428377 2.341805152028776e-38
1.035030 -0.126405 0.427626 2.341805152028776e-38
1.031602 -0.131436 0.426495 2.341805152028776e-38
2.035125 0.089102 0.822883 2.341805152028776e-38
2.031851 0.078476 0.821384 2.341805152028776e-38
2.022962 0.067702 0.817637 2.341805152028776e-38
2.011235 0.056945 0.812767 2.341805152028776e-38
1.980912 0.045883 0.800406 2.341805152028776e-38
1.113574 0.002865 0.449829 2.341805152028776e-38
1.082976 -0.002786 0.437469 2.341805152028776e-38
1.073675 -0.008288 0.433724 2.341805152028776e-38
1.071764 -0.013789 0.432975 2.341805152028776e-38
1.068898 -0.019255 0.431852 2.341805152028776e-38
1.067857 -0.024734 0.431478 2.341805152028776e-38
1.063081 -0.030100 0.429606 2.341805152028776e-38
1.061985 -0.035541 0.429232 2.341805152028776e-38
1.059935 -0.040938 0.428483 2.341805152028776e-38
1.059710 -0.046396 0.428483 2.341805152028776e-38
1.055752 -0.051673 0.426986 2.341805152028776e-38
1.052694 -0.056962 0.425862 2.341805152028776e-38
1.049610 -0.062223 0.424739 2.341805152028776e-38
1.050201 -0.067693 0.425113 2.341805152028776e-38
1.047988 -0.072980 0.424364 2.341805152028776e-38
1.046673 -0.078316 0.423989 2.341805152028776e-38
1.046255 -0.083717 0.423988 2.341805152028776e-38
1.046727 -0.089200 0.424376 2.341805152028776e-38
1.044400 -0.094442 0.423639 2.341805152028776e-38
1.042970 -0.099753 0.423277 2.341805152028776e-38
1.040589 -0.104962 0.422541 2.341805152028776e-38
1.041871 -0.110544 0.423303 2.341805152028776e-38
1.040358 -0.115837 0.422941 2.341805152028776e-38
1.038817 -0.121121 0.422578 2.341805152028776e-38
1.036330 -0.126283 0.421840 2.341805152028776e-38
1.036576 -0.131778 0.422226 2.341805152028776e-38
2.043053 0.089262 0.813860 2.341805152028776e-38
2.037915 0.078546 0.811638 2.341805152028776e-38
2.033650 0.067918 0.809786 2.341805152028776e-38
2.021899 0.057127 0.804977 2.341805152028776e-38
1.102870 0.002832 0.438906 2.341805152028776e-38
1.085217 -0.002786 0.431881 2.341805152028776e-38
1.077755 -0.008302 0.428923 2.341805152028776e-38
1.073053 -0.013777 0.427075 2.341805152028776e-38
1.070181 -0.019237 0.425966 2.341805152028776e-38
1.068210 -0.024691 0.425228 2.341805152028776e-38
1.067140 -0.030151 0.424859 2.341805152028776e-38
1.063255 -0.035509 0.423382 2.341805152028776e-38
1.062130 -0.040937 0.423013 2.341805152028776e-38
1.060977 -0.046355 0.422645 2.341805152028776e-38
1.057011 -0.051627 0.421168 2.341805152028776e-38
1.053020 -0.056861 0.419691 2.341805152028776e-38
1.052713 -0.062277 0.419692 2.341805152028776e-38
1.054233 -0.067812 0.420433 2.341805152028776e-38
1.052015 -0.073108 0.419695 2.341805152028776e-38
1.050698 -0.078455 0.419327 2.341805152028776e-38
1.049353 -0.083792 0.418958 2.341805152028776e-38
1.049833 -0.089276 0.419328 2.341805152028776e-38
1.048434 -0.094604 0.418958 2.341805152028776e-38
1.045157 -0.099744 0.417848 2.341805152028776e-38
1.044629 -0.105136 0.417847 2.341805152028776e-38
1.044068 -0.110530 0.417857 2.341805152028776e-38
1.041630 -0.115721 0.417133 2.341805152028776e-38
1.041011 -0.121108 0.417148 2.341805152028776e-38
1.038520 -0.126270 0.416424 2.341805152028776e-38
1.037846 -0.131648 0.416438 2.341805152028776e-38
2.023968 0.088244 0.794193 2.341805152028776e-38
2.018814 0.077647 0.791998 2.341805152028776e-38
2.017327 0.067231 0.791263 2.341805152028776e-38
2.003687 0.056494 0.785784 2.341805152028776e-38
1.135812 0.008731 0.445259 2.341805152028776e-38
1.096739 0.002810 0.429930 2.341805152028776e-38
1.083705 -0.002777 0.424821 2.341805152028776e-38
1.074366 -0.008258 0.421171 2.341805152028776e-38
1.071516 -0.013728 0.420077 2.341805152028776e-38
1.069570 -0.019186 0.419349 2.341805152028776e-38
1.071318 -0.024711 0.420080 2.341805152028776e-38
1.067454 -0.030097 0.418622 2.341805152028776e-38
1.065424 -0.035507 0.417895 2.341805152028776e-38
1.064296 -0.040935 0.417533 2.341805152028776e-38
1.063141 -0.046352 0.417170 2.341805152028776e-38
1.059169 -0.051625 0.415714 2.341805152028776e-38
1.057029 -0.056959 0.414987 2.341805152028776e-38
1.053933 -0.062220 0.413895 2.341805152028776e-38
1.051740 -0.067511 0.413169 2.341805152028776e-38
1.048592 -0.072719 0.412077 2.341805152028776e-38
1.049132 -0.078176 0.412445 2.341805152028776e-38
1.050571 -0.083716 0.413178 2.341805152028776e-38
1.051981 -0.089275 0.413911 2.341805152028776e-38
1.048725 -0.094436 0.412818 2.341805152028776e-38
1.048224 -0.099832 0.412820 2.341805152028776e-38
1.046769 -0.105136 0.412457 2.341805152028776e-38
1.046213 -0.110528 0.412457 2.341805152028776e-38
1.042854 -0.115612 0.411362 2.341805152028776e-38
1.040394 -0.120774 0.410632 2.341805152028776e-38
1.038833 -0.126030 0.410267 2.341805152028776e-38
1.036313 -0.131165 0.409555 2.341805152028776e-38
1.988891 0.086534 0.768622 2.341805152028776e-38
1.982786 0.076102 0.766093 2.341805152028776e-38
1.987814 0.066110 0.767887 2.341805152028776e-38
1.967613 0.055361 0.759957 2.341805152028776e-38
1.120368 0.008594 0.432555 2.341805152028776e-38
1.091478 0.002791 0.421389 2.341805152028776e-38
1.081216 -0.002764 0.417428 2.341805152028776e-38
1.076523 -0.008257 0.415627 2.341805152028776e-38
1.075533 -0.013751 0.415268 2.341805152028776e-38
1.072650 -0.019201 0.414190 2.341805152028776e-38
1.071604 -0.024665 0.413832 2.341805152028776e-38
1.068666 -0.030068 0.412754 2.341805152028776e-38
1.067564 -0.035504 0.412397 2.341805152028776e-38
1.065503 -0.040895 0.411681 2.341805152028776e-38
1.063414 -0.046268 0.410964 2.341805152028776e-38
1.061298 -0.051621 0.410249 2.341805152028776e-38
1.060086 -0.057005 0.409893 2.341805152028776e-38
1.069091 -0.062983 0.413500 2.341805152028776e-38
1.065959 -0.068282 0.412425 2.341805152028776e-38
1.055356 -0.073037 0.408468 2.341805152028776e-38
1.053105 -0.078310 0.407753 2.341805152028776e-38
1.053617 -0.083786 0.408118 2.341805152028776e-38
1.053171 -0.089192 0.408123 2.341805152028776e-38
1.052697 -0.094599 0.408128 2.341805152028776e-38
1.050338 -0.099829 0.407412 2.341805152028776e-38
1.048882 -0.105134 0.407056 2.341805152028776e-38
1.046470 -0.110330 0.406339 2.341805152028776e-38
1.044033 -0.115508 0.405621 2.341805152028776e-38
1.041571 -0.120666 0.404903 2.341805152028776e-38
1.038157 -0.125693 0.403823 2.341805152028776e-38
1.039346 -0.131276 0.404544 2.341805152028776e-38
1.967612 0.085430 0.748767 2.341805152028776e-38
1.968021 0.075380 0.748772 2.341805152028776e-38
1.960905 0.065081 0.745933 2.341805152028776e-38
1.929443 0.054177 0.733853 2.341805152028776e-38
1.113221 0.008522 0.423258 2.341805152028776e-38
1.091751 0.002786 0.415084 2.341805152028776e-38
1.086143 -0.002771 0.412952 2.341805152028776e-38
1.082376 -0.008286 0.411530 2.341805152028776e-38
1.078581 -0.013762 0.410108 2.341805152028776e-38
1.074759 -0.019200 0.408686 2.341805152028776e-38
1.071844 -0.024621 0.407619 2.341805152028776e-38
1.070771 -0.030066 0.407262 2.341805152028776e-38
1.068735 -0.035471 0.406549 2.341805152028776e-38
1.069475 -0.040963 0.406903 2.341805152028776e-38
1.066451 -0.046303 0.405834 2.341805152028776e-38
1.063398 -0.051615 0.404773 2.341805152028776e-38
1.073385 -0.057600 0.408688 2.341805152028776e-38
1.083338 -0.063691 0.412604 2.341805152028776e-38
1.074601 -0.068693 0.409413 2.341805152028776e-38
1.066772 -0.073675 0.406577 2.341805152028776e-38
1.060786 -0.078719 0.404452 2.341805152028776e-38
1.057570 -0.083927 0.403393 2.341805152028776e-38
1.057124 -0.089344 0.403401 2.341805152028776e-38
1.053856 -0.094510 0.402341 2.341805152028776e-38
1.052425 -0.099824 0.401993 2.341805152028776e-38
1.049106 -0.104942 0.400934 2.341805152028776e-38
1.046692 -0.110130 0.400229 2.341805152028776e-38
1.043323 -0.115196 0.399168 2.341805152028776e-38
1.041787 -0.120448 0.398818 2.341805152028776e-38
1.041152 -0.125803 0.398822 2.341805152028776e-38
1.041417 -0.131274 0.399181 2.341805152028776e-38
1.959231 0.084907 0.734194 2.341805152028776e-38
1.955894 0.074775 0.732794 2.341805152028776e-38
1.938465 0.064216 0.726134 2.341805152028776e-38
1.163996 0.014824 0.435824 2.341805152028776e-38
1.107867 0.008465 0.414786 2.341805152028776e-38
1.091975 0.002781 0.408826 2.341805152028776e-38
1.086356 -0.002767 0.406722 2.341805152028776e-38
1.081645 -0.008265 0.404969 2.341805152028776e-38
1.077844 -0.013727 0.403566 2.341805152028776e-38
1.075887 -0.019184 0.402865 2.341805152028776e-38
1.074839 -0.024644 0.402513 2.341805152028776e-38
1.075636 -0.030146 0.402863 2.341805152028776e-38
1.072661 -0.035534 0.401811 2.341805152028776e-38
1.070595 -0.040929 0.401108 2.341805152028776e-38
1.070373 -0.046386 0.401107 2.341805152028776e-38
1.069188 -0.051798 0.400754 2.341805152028776e-38
1.073586 -0.057501 0.402505 2.341805152028776e-38
1.077954 -0.063251 0.404256 2.341805152028776e-38
1.071076 -0.068333 0.401798 2.341805152028776e-38
1.066978 -0.073541 0.400392 2.341805152028776e-38
1.061920 -0.078642 0.398635 2.341805152028776e-38
1.059636 -0.083919 0.397938 2.341805152028776e-38
1.056390 -0.089099 0.396896 2.341805152028776e-38
1.054984 -0.094418 0.396555 2.341805152028776e-38
1.053551 -0.099727 0.396214 2.341805152028776e-38
1.051159 -0.104934 0.395522 2.341805152028776e-38
1.047810 -0.110025 0.394479 2.341805152028776e-38
1.045367 -0.115189 0.393787 2.341805152028776e-38
1.043829 -0.120442 0.393444 2.341805152028776e-38
1.043195 -0.125797 0.393452 2.341805152028776e-38
1.043461 -0.131270 0.393809 2.341805152028776e-38
1.934817 0.083692 0.713845 2.341805152028776e-38
1.931467 0.073703 0.712462 2.341805152028776e-38
1.902746 0.062915 0.701741 2.341805152028776e-38
1.142742 0.014526 0.421252 2.341805152028776e-38
1.103394 0.008415 0.406726 2.341805152028776e-38
1.090287 0.002772 0.401884 2.341805152028776e-38
1.085595 -0.002760 0.400155 2.341805152028776e-38
1.082753 -0.008258 0.399117 2.341805152028776e-38
1.078006 -0.013703 0.397388 2.341805152028776e-38
1.077922 -0.019184 0.397388 2.341805152028776e-38
1.077810 -0.024665 0.397388 2.341805152028776e-38
1.076733 -0.030120 0.397042 2.341805152028776e-38
1.073753 -0.035504 0.396005 2.341805152028776e-38
1.074496 -0.041002 0.396350 2.341805152028776e-38
1.074273 -0.046469 0.396350 2.341805152028776e-38
1.072149 -0.051845 0.395658 2.341805152028776e-38
1.070934 -0.057252 0.395311 2.341805152028776e-38
1.069693 -0.062649 0.394964 2.341805152028776e-38
1.068424 -0.068037 0.394617 2.341805152028776e-38
1.065256 -0.073287 0.393577 2.341805152028776e-38
1.061126 -0.078438 0.392192 2.341805152028776e-38
1.058843 -0.083699 0.391497 2.341805152028776e-38
1.058404 -0.089099 0.391494 2.341805152028776e-38
1.057937 -0.094497 0.391489 2.341805152028776e-38
1.054640 -0.099631 0.390447 2.341805152028776e-38
1.052250 -0.104831 0.389755 2.341805152028776e-38
1.049830 -0.110014 0.389075 2.341805152028776e-38
1.047383 -0.115179 0.388395 2.341805152028776e-38
1.045844 -0.120433 0.388061 2.341805152028776e-38
1.047072 -0.126013 0.388763 2.341805152028776e-38
1.046409 -0.131379 0.388773 2.341805152028776e-38
1.917761 0.082800 0.696493 2.341805152028776e-38
1.917218 0.073023 0.696150 2.341805152028776e-38
1.184256 0.021037 0.429761 2.341805152028776e-38
1.121371 0.014228 0.406909 2.341805152028776e-38
1.098868 0.008365 0.398722 2.341805152028776e-38
1.091376 0.002769 0.395994 2.341805152028776e-38
1.087616 -0.002760 0.394629 2.341805152028776e-38
1.081948 -0.008236 0.392583 2.341805152028776e-38
1.080012 -0.013703 0.391901 2.341805152028776e-38
1.078989 -0.019167 0.391560 2.341805152028776e-38
1.079817 -0.024665 0.391902 2.341805152028776e-38
1.075919 -0.030041 0.390538 2.341805152028776e-38
1.076692 -0.035535 0.390880 2.341805152028776e-38
1.076498 -0.041002 0.390881 2.341805152028776e-38
1.075336 -0.046428 0.390541 2.341805152028776e-38
1.072269 -0.051754 0.389518 2.341805152028776e-38
1.070115 -0.057102 0.388837 2.341805152028776e-38
1.069811 -0.062540 0.388837 2.341805152028776e-38
1.067602 -0.067859 0.388155 2.341805152028776e-38
1.063492 -0.073030 0.386791 2.341805152028776e-38
1.063107 -0.078440 0.386790 2.341805152028776e-38
1.061757 -0.083775 0.386448 2.341805152028776e-38
1.061317 -0.089180 0.386447 2.341805152028776e-38
1.058041 -0.094334 0.385422 2.341805152028776e-38
1.055676 -0.099547 0.384737 2.341805152028776e-38
1.055156 -0.104927 0.384733 2.341805152028776e-38
1.054609 -0.110307 0.384729 2.341805152028776e-38
1.051231 -0.115378 0.383701 2.341805152028776e-38
1.049697 -0.120636 0.383353 2.341805152028776e-38
1.047196 -0.125777 0.382682 2.341805152028776e-38
1.046533 -0.131133 0.382696 2.341805152028776e-38
1.857298 0.080040 0.663863 2.341805152028776e-38
1.840742 0.069979 0.657806 2.341805152028776e-38
1.147820 0.020352 0.409946 2.341805152028776e-38
1.112125 0.014084 0.397165 2.341805152028776e-38
1.098998 0.008350 0.392457 2.341805152028776e-38
1.092434 0.002767 0.390102 2.341805152028776e-38
1.087726 -0.002755 0.388421 2.341805152028776e-38
1.083930 -0.008236 0.387076 2.341805152028776e-38
1.080108 -0.013678 0.385731 2.341805152028776e-38
1.080024 -0.019150 0.385732 2.341805152028776e-38
1.079913 -0.024621 0.385733 2.341805152028776e-38
1.078833 -0.030067 0.385398 2.341805152028776e-38
1.077725 -0.035502 0.385064 2.341805152028776e-38
1.076589 -0.040929 0.384729 2.341805152028776e-38
1.075426 -0.046345 0.384395 2.341805152028776e-38
1.073295 -0.051708 0.383724 2.341805152028776e-38
1.072078 -0.057101 0.383390 2.341805152028776e-38
1.068954 -0.062375 0.382383 2.341805152028776e-38
1.066743 -0.067679 0.381712 2.341805152028776e-38
1.067324 -0.073159 0.382050 2.341805152028776e-38
1.066939 -0.078578 0.382052 2.341805152028776e-38
1.064648 -0.083850 0.381380 2.341805152028776e-38
1.062330 -0.089102 0.380708 2.341805152028776e-38
1.059049 -0.094252 0.379699 2.341805152028776e-38
1.056681 -0.099461 0.379027 2.341805152028776e-38
1.057099 -0.104930 0.379362 2.341805152028776e-38
1.055615 -0.110213 0.379024 2.341805152028776e-38
1.054105 -0.115485 0.378685 2.341805152028776e-38
1.051633 -0.120641 0.378009 2.341805152028776e-38
1.050070 -0.125889 0.377668 2.341805152028776e-38
1.048482 -0.131127 0.377326 2.341805152028776e-38
1.786186 0.076833 0.628220 2.341805152028776e-38
1.756381 0.066650 0.617619 2.341805152028776e-38
1.125353 0.019918 0.395517 2.341805152028776e-38
1.103741 0.013953 0.387893 2.341805152028776e-38
1.095306 0.008307 0.384911 2.341805152028776e-38
1.092504 0.002762 0.383917 2.341805152028776e-38
1.089673 -0.002755 0.382922 2.341805152028776e-38
1.085872 -0.008236 0.381595 2.341805152028776e-38
1.082044 -0.013679 0.380268 2.341805152028776e-38
1.079131 -0.019100 0.379272 2.341805152028776e-38
1.079965 -0.024578 0.379600 2.341805152028776e-38
1.079828 -0.030040 0.379597 2.341805152028776e-38
1.076835 -0.035409 0.378599 2.341805152028776e-38
1.077586 -0.040891 0.378926 2.341805152028776e-38
1.076425 -0.046302 0.378590 2.341805152028776e-38
1.074291 -0.051660 0.377930 2.341805152028776e-38
1.071188 -0.056948 0.376939 2.341805152028776e-38
1.070884 -0.062372 0.376943 2.341805152028776e-38
1.069612 -0.067736 0.376615 2.341805152028776e-38
1.068312 -0.073092 0.376287 2.341805152028776e-38
1.066986 -0.078437 0.375958 2.341805152028776e-38
1.065633 -0.083774 0.375630 2.341805152028776e-38
1.064253 -0.089100 0.375301 2.341805152028776e-38
1.060027 -0.094167 0.373978 2.341805152028776e-38
1.058595 -0.099460 0.373648 2.341805152028776e-38
1.058076 -0.104837 0.373650 2.341805152028776e-38
1.060344 -0.110507 0.374645 2.341805152028776e-38
1.058830 -0.115795 0.374314 2.341805152028776e-38
1.055416 -0.120858 0.373318 2.341805152028776e-38
1.052914 -0.126005 0.372653 2.341805152028776e-38
1.052260 -0.131366 0.372650 2.341805152028776e-38
1.757211 0.075463 0.608140 2.341805152028776e-38
1.715069 0.064975 0.593442 2.341805152028776e-38
1.189568 0.027028 0.411434 2.341805152028776e-38
1.118818 0.019770 0.386926 2.341805152028776e-38
1.101892 0.013907 0.381045 2.341805152028776e-38
1.096278 0.008301 0.379086 2.341805152028776e-38
1.094415 0.002762 0.378433 2.341805152028776e-38
1.090635 -0.002753 0.377125 2.341805152028776e-38
1.087772 -0.008237 0.376144 2.341805152028776e-38
1.084882 -0.013692 0.375163 2.341805152028776e-38
1.082910 -0.019135 0.374508 2.341805152028776e-38
1.080910 -0.024560 0.373852 2.341805152028776e-38
1.079829 -0.029991 0.373523 2.341805152028776e-38
1.079665 -0.035443 0.373520 2.341805152028776e-38
1.079473 -0.040896 0.373516 2.341805152028776e-38
1.079255 -0.046348 0.373511 2.341805152028776e-38
1.078064 -0.051755 0.373179 2.341805152028776e-38
1.076847 -0.057152 0.372846 2.341805152028776e-38
1.073717 -0.062429 0.371859 2.341805152028776e-38
1.072447 -0.067797 0.371525 2.341805152028776e-38
1.070207 -0.073090 0.370863 2.341805152028776e-38
1.068884 -0.078433 0.370529 2.341805152028776e-38
1.067529 -0.083769 0.370207 2.341805152028776e-38
1.065206 -0.089018 0.369559 2.341805152028776e-38
1.064739 -0.094414 0.369564 2.341805152028776e-38
1.062364 -0.099634 0.368914 2.341805152028776e-38
1.060903 -0.104928 0.368592 2.341805152028776e-38
1.060355 -0.110309 0.368595 2.341805152028776e-38
1.059781 -0.115691 0.368598 2.341805152028776e-38
1.058240 -0.120966 0.368273 2.341805152028776e-38
1.052919 -0.125782 0.366640 2.341805152028776e-38
1.056017 -0.131602 0.367947 2.341805152028776e-38
1.729026 0.074131 0.588691 2.341805152028776e-38
1.687750 0.063836 0.574527 2.341805152028776e-38
1.329635 0.036869 0.452479 2.341805152028776e-38
1.166062 0.026451 0.396767 2.341805152028776e-38
1.115065 0.019671 0.379378 2.341805152028776e-38
1.101896 0.013884 0.374870 2.341805152028776e-38
1.097219 0.008295 0.373260 2.341805152028776e-38
1.094406 0.002758 0.372295 2.341805152028776e-38
1.092513 -0.002753 0.371651 2.341805152028776e-38
1.090592 -0.008245 0.371006 2.341805152028776e-38
1.087697 -0.013705 0.370039 2.341805152028776e-38
1.084774 -0.019137 0.369072 2.341805152028776e-38
1.084665 -0.024605 0.369070 2.341805152028776e-38
1.083581 -0.030046 0.368746 2.341805152028776e-38
1.083417 -0.035509 0.368744 2.341805152028776e-38
1.083225 -0.040971 0.368741 2.341805152028776e-38
1.083006 -0.046434 0.368737 2.341805152028776e-38
1.080868 -0.051805 0.368089 2.341805152028776e-38
1.078704 -0.057157 0.367440 2.341805152028776e-38
1.077458 -0.062545 0.367113 2.341805152028776e-38
1.074296 -0.067804 0.366140 2.341805152028776e-38
1.072998 -0.073162 0.365811 2.341805152028776e-38
1.069785 -0.078373 0.364838 2.341805152028776e-38
1.067491 -0.083628 0.364185 2.341805152028776e-38
1.068945 -0.089178 0.364820 2.341805152028776e-38
1.067541 -0.094497 0.364487 2.341805152028776e-38
1.063283 -0.099540 0.363188 2.341805152028776e-38
1.060879 -0.104736 0.362549 2.341805152028776e-38
1.063158 -0.110403 0.363521 2.341805152028776e-38
1.061641 -0.115688 0.363205 2.341805152028776e-38
1.059158 -0.120855 0.362566 2.341805152028776e-38
1.053830 -0.125668 0.360960 2.341805152028776e-38
1.063511 -0.132302 0.364505 2.341805152028776e-38
1.703533 0.072920 0.570492 2.341805152028776e-38
1.633751 0.061694 0.547017 2.341805152028776e-38
1.269322 0.035139 0.424863 2.341805152028776e-38
1.154764 0.026152 0.386471 2.341805152028776e-38
1.109368 0.019539 0.371242 2.341805152028776e-38
1.099021 0.013825 0.367752 2.341805152028776e-38
1.096232 0.008274 0.366801 2.341805152028776e-38
1.097208 0.002760 0.367118 2.341805152028776e-38
1.094363 -0.002753 0.366167 2.341805152028776e-38
1.092439 -0.008245 0.365532 2.341805152028776e-38
1.089539 -0.013706 0.364579 2.341805152028776e-38
1.087560 -0.019155 0.363944 2.341805152028776e-38
1.087450 -0.024628 0.363943 2.341805152028776e-38
1.086365 -0.030074 0.363624 2.341805152028776e-38
1.085253 -0.035511 0.363305 2.341805152028776e-38
1.083166 -0.040902 0.362668 2.341805152028776e-38
1.084842 -0.046437 0.363300 2.341805152028776e-38
1.083648 -0.051854 0.362980 2.341805152028776e-38
1.081480 -0.057212 0.362342 2.341805152028776e-38
1.079286 -0.062550 0.361703 2.341805152028776e-38
1.078012 -0.067929 0.361381 2.341805152028776e-38
1.076712 -0.073298 0.361059 2.341805152028776e-38
1.072547 -0.078449 0.359783 2.341805152028776e-38
1.072140 -0.083858 0.359777 2.341805152028776e-38
1.070761 -0.089187 0.359452 2.341805152028776e-38
1.069355 -0.094507 0.359126 2.341805152028776e-38
1.065091 -0.099551 0.357847 2.341805152028776e-38
1.064578 -0.104929 0.357836 2.341805152028776e-38
1.064039 -0.110307 0.357825 2.341805152028776e-38
1.061586 -0.115478 0.357177 2.341805152028776e-38
1.059104 -0.120635 0.356543 2.341805152028776e-38
1.055651 -0.125662 0.355598 2.341805152028776e-38
1.070057 -0.132882 0.360680 2.341805152028776e-38
1.670310 0.071382 0.550064 2.341805152028776e-38
1.573825 0.059334 0.518188 2.341805152028776e-38
1.229657 0.033986 0.404739 2.341805152028776e-38
1.135795 0.025681 0.373798 2.341805152028776e-38
1.109317 0.019506 0.365048 2.341805152028776e-38
1.111300 0.013957 0.365673 2.341805152028776e-38
1.109456 0.008360 0.365049 2.341805152028776e-38
1.100935 0.002765 0.362236 2.341805152028776e-38
1.099036 -0.002760 0.361611 2.341805152028776e-38
1.095208 -0.008253 0.360360 2.341805152028776e-38
1.091354 -0.013706 0.359110 2.341805152028776e-38
1.090322 -0.019172 0.358797 2.341805152028776e-38
1.091161 -0.024672 0.359109 2.341805152028776e-38
1.089125 -0.030102 0.358483 2.341805152028776e-38
1.086112 -0.035482 0.357545 2.341805152028776e-38
1.086869 -0.040976 0.357856 2.341805152028776e-38
1.085701 -0.046399 0.357542 2.341805152028776e-38
1.084506 -0.051812 0.357227 2.341805152028776e-38
1.082335 -0.057165 0.356600 2.341805152028776e-38
1.081087 -0.062554 0.356285 2.341805152028776e-38
1.079811 -0.067933 0.355969 2.341805152028776e-38
1.077561 -0.073238 0.355340 2.341805152028776e-38
1.075286 -0.078524 0.354711 2.341805152028776e-38
1.072984 -0.083790 0.354081 2.341805152028776e-38
1.071604 -0.089116 0.353762 2.341805152028776e-38
1.069251 -0.094348 0.353131 2.341805152028776e-38
1.065927 -0.099472 0.352186 2.341805152028776e-38
1.065414 -0.104847 0.352177 2.341805152028776e-38
1.065820 -0.110318 0.352480 2.341805152028776e-38
1.065253 -0.115696 0.352469 2.341805152028776e-38
1.062772 -0.120858 0.351832 2.341805152028776e-38
1.054606 -0.125328 0.349319 2.341805152028776e-38
1.079417 -0.133811 0.357740 2.341805152028776e-38
1.637875 0.069883 0.530292 2.341805152028776e-38
1.314213 0.042866 0.425359 2.341805152028776e-38
1.190767 0.032860 0.385354 2.341805152028776e-38
1.130037 0.025511 0.365662 2.341805152028776e-38
1.122539 0.019709 0.363205 2.341805152028776e-38
1.125477 0.014114 0.364132 2.341805152028776e-38
1.117921 0.008411 0.361672 2.341805152028776e-38
1.107483 0.002777 0.358287 2.341805152028776e-38
1.100823 -0.002761 0.356132 2.341805152028776e-38
1.097941 -0.008261 0.355208 2.341805152028776e-38
1.095984 -0.013744 0.354590 2.341805152028776e-38
1.094951 -0.019224 0.354278 2.341805152028776e-38
1.093891 -0.024695 0.353966 2.341805152028776e-38
1.091853 -0.030130 0.353344 2.341805152028776e-38
1.090740 -0.035577 0.353029 2.341805152028776e-38
1.088649 -0.040977 0.352405 2.341805152028776e-38
1.087481 -0.046400 0.352092 2.341805152028776e-38
1.085334 -0.051768 0.351476 2.341805152028776e-38
1.084110 -0.057167 0.351167 2.341805152028776e-38
1.081910 -0.062501 0.350550 2.341805152028776e-38
1.080633 -0.067876 0.350241 2.341805152028776e-38
1.079330 -0.073241 0.349931 2.341805152028776e-38
1.077051 -0.078528 0.349312 2.341805152028776e-38
1.072849 -0.083647 0.348078 2.341805152028776e-38
1.073364 -0.089121 0.348382 2.341805152028776e-38
1.071008 -0.094354 0.347762 2.341805152028776e-38
1.070522 -0.099744 0.347756 2.341805152028776e-38
1.068114 -0.104948 0.347134 2.341805152028776e-38
1.068521 -0.110425 0.347435 2.341805152028776e-38
1.067007 -0.115706 0.347119 2.341805152028776e-38
1.064523 -0.120870 0.346494 2.341805152028776e-38
1.054455 -0.125117 0.343406 2.341805152028776e-38
1.094418 -0.135462 0.356625 2.341805152028776e-38
1.619534 0.069005 0.515509 2.341805152028776e-38
1.253438 0.040827 0.398850 2.341805152028776e-38
1.156459 0.031869 0.367943 2.341805152028776e-38
1.126116 0.025388 0.358250 2.341805152028776e-38
1.123369 0.019696 0.357345 2.341805152028776e-38
1.120594 0.014033 0.356439 2.341805152028776e-38
1.110167 0.008341 0.353107 2.341805152028776e-38
1.105430 0.002768 0.351593 2.341805152028776e-38
1.102571 -0.002761 0.350684 2.341805152028776e-38
1.101591 -0.008277 0.350379 2.341805152028776e-38
1.099630 -0.013771 0.349771 2.341805152028776e-38
1.095737 -0.019212 0.348555 2.341805152028776e-38
1.095629 -0.024700 0.348551 2.341805152028776e-38
1.093588 -0.030136 0.347939 2.341805152028776e-38
1.092473 -0.035584 0.347630 2.341805152028776e-38
1.091331 -0.041022 0.347319 2.341805152028776e-38
1.090162 -0.046450 0.347007 2.341805152028776e-38
1.088015 -0.051822 0.346390 2.341805152028776e-38
1.084890 -0.057125 0.345470 2.341805152028776e-38
1.084594 -0.062563 0.345457 2.341805152028776e-38
1.085223 -0.068060 0.345746 2.341805152028776e-38
1.082971 -0.073373 0.345125 2.341805152028776e-38
1.078790 -0.078530 0.343906 2.341805152028776e-38
1.076482 -0.083797 0.343298 2.341805152028776e-38
1.075098 -0.089124 0.342993 2.341805152028776e-38
1.072739 -0.094358 0.342385 2.341805152028776e-38
1.070355 -0.099572 0.341775 2.341805152028776e-38
1.069842 -0.104953 0.341771 2.341805152028776e-38
1.071198 -0.110530 0.342372 2.341805152028776e-38
1.070630 -0.115919 0.342366 2.341805152028776e-38
1.068141 -0.121094 0.341753 2.341805152028776e-38
1.058056 -0.125351 0.338715 2.341805152028776e-38
1.597270 0.067964 0.499735 2.341805152028776e-38
1.220100 0.039687 0.381606 2.341805152028776e-38
1.143000 0.031455 0.357444 2.341805152028776e-38
1.123103 0.025285 0.351184 2.341805152028776e-38
1.115579 0.019533 0.348801 2.341805152028776e-38
1.111845 0.013904 0.347611 2.341805152028776e-38
1.109036 0.008321 0.346717 2.341805152028776e-38
1.106201 0.002767 0.345823 2.341805152028776e-38
1.103337 -0.002759 0.344928 2.341805152028776e-38
1.103310 -0.008278 0.344927 2.341805152028776e-38
1.103255 -0.013797 0.344925 2.341805152028776e-38
1.100311 -0.019266 0.344027 2.341805152028776e-38
1.097339 -0.024705 0.343128 2.341805152028776e-38
1.095295 -0.030142 0.342526 2.341805152028776e-38
1.093225 -0.035560 0.341923 2.341805152028776e-38
1.091128 -0.040958 0.341319 2.341805152028776e-38
1.089004 -0.046337 0.340715 2.341805152028776e-38
1.086855 -0.051696 0.340109 2.341805152028776e-38
1.087539 -0.057187 0.340396 2.341805152028776e-38
1.089148 -0.062741 0.340981 2.341805152028776e-38
1.086919 -0.068074 0.340372 2.341805152028776e-38
1.084665 -0.073388 0.339761 2.341805152028776e-38
1.078577 -0.078406 0.337956 2.341805152028776e-38
1.078175 -0.083809 0.337939 2.341805152028776e-38
1.077748 -0.089211 0.337921 2.341805152028776e-38
1.075391 -0.094445 0.337305 2.341805152028776e-38
1.073006 -0.099663 0.336700 2.341805152028776e-38
1.073442 -0.105143 0.336997 2.341805152028776e-38
1.072901 -0.110534 0.336994 2.341805152028776e-38
1.072333 -0.115925 0.336990 2.341805152028776e-38
1.072687 -0.121422 0.337284 2.341805152028776e-38
1.068273 -0.126368 0.336085 2.341805152028776e-38
1.366958 0.051243 0.420191 2.341805152028776e-38
1.193310 0.038763 0.366757 2.341805152028776e-38
1.134242 0.031172 0.348557 2.341805152028776e-38
1.119092 0.025161 0.343863 2.341805152028776e-38
1.114424 0.019486 0.342398 2.341805152028776e-38
1.112594 0.013895 0.341814 2.341805152028776e-38
1.110738 0.008323 0.341228 2.341805152028776e-38
1.107897 0.002767 0.340348 2.341805152028776e-38
1.106941 -0.002765 0.340054 2.341805152028776e-38
1.105958 -0.008287 0.339760 2.341805152028776e-38
1.104948 -0.013799 0.339464 2.341805152028776e-38
1.101999 -0.019269 0.338581 2.341805152028776e-38
1.100934 -0.024752 0.338284 2.341805152028776e-38
1.095065 -0.030095 0.336517 2.341805152028776e-38
1.096813 -0.035628 0.337099 2.341805152028776e-38
1.104265 -0.041395 0.339442 2.341805152028776e-38
1.104047 -0.046914 0.339434 2.341805152028776e-38
1.095208 -0.052023 0.336783 2.341805152028776e-38
1.090164 -0.057247 0.335305 2.341805152028776e-38
1.089867 -0.062697 0.335295 2.341805152028776e-38
1.086681 -0.067968 0.334402 2.341805152028776e-38
1.085378 -0.073338 0.334096 2.341805152028776e-38
1.083095 -0.078629 0.333495 2.341805152028776e-38
1.082693 -0.084048 0.333479 2.341805152028776e-38
1.080358 -0.089308 0.332875 2.341805152028776e-38
1.078951 -0.094632 0.332564 2.341805152028776e-38
1.075614 -0.099769 0.331664 2.341805152028776e-38
1.074156 -0.105062 0.331349 2.341805152028776e-38
1.073623 -0.110442 0.331327 2.341805152028776e-38
