VERSION .7
FIELDS x y z rgb
SIZE 4 4 4 4
TYPE F F F F
COUNT 1 1 1 1
WIDTH 957
HEIGHT 1
VIEWPOINT 0 0 0 1 0 0 0
POINTS 957
DATA ascii
0.982880 0.643485 -0.053390 2.341805152028776e-38
0.968191 0.618369 -0.052218 2.341805152028776e-38
0.974200 0.614493 -0.052356 2.341805152028776e-38
0.871495 0.577881 -0.052535 2.341805152028776e-38
0.869768 0.569610 -0.052235 2.341805152028776e-38
0.868776 0.561979 -0.051989 2.341805152028776e-38
0.867726 0.554378 -0.051742 2.341805152028776e-38
0.874220 0.551604 -0.051945 2.341805152028776e-38
0.898510 0.559865 -0.053200 2.341805152028776e-38
0.792965 0.525996 -0.052372 2.341805152028776e-38
0.795958 0.521457 -0.052373 2.341805152028776e-38
0.796376 0.515324 -0.052213 2.341805152028776e-38
0.798430 0.510283 -0.052162 2.341805152028776e-38
0.800453 0.505236 -0.052110 2.341805152028776e-38
0.809223 0.504407 -0.052495 2.341805152028776e-38
0.819710 0.504543 -0.052989 2.341805152028776e-38
0.832752 0.506183 -0.053651 2.341805152028776e-38
0.842409 0.505645 -0.054092 2.341805152028776e-38
0.851228 0.504505 -0.054477 2.341805152028776e-38
0.777682 0.516059 -0.055851 2.341805152028776e-38
0.779783 0.511060 -0.055793 2.341805152028776e-38
0.782661 0.506640 -0.055797 2.341805152028776e-38
0.784667 0.501677 -0.055742 2.341805152028776e-38
0.784954 0.495641 -0.055565 2.341805152028776e-38
0.787738 0.491203 -0.055566 2.341805152028776e-38
0.791348 0.487273 -0.055625 2.341805152028776e-38
0.796618 0.484398 -0.055806 2.341805152028776e-38
0.803584 0.482520 -0.056107 2.341805152028776e-38
0.809696 0.480069 -0.056346 2.341805152028776e-38
0.814082 0.476557 -0.056464 2.341805152028776e-38
0.815862 0.471513 -0.056401 2.341805152028776e-38
0.821054 0.468485 -0.056580 2.341805152028776e-38
0.827099 0.465919 -0.056819 2.341805152028776e-38
0.834013 0.463785 -0.057116 2.341805152028776e-38
0.838303 0.460149 -0.057232 2.341805152028776e-38
0.842578 0.456479 -0.057347 2.341805152028776e-38
0.848576 0.453760 -0.057584 2.341805152028776e-38
0.858975 0.453335 -0.058120 2.341805152028776e-38
0.864967 0.450505 -0.058356 2.341805152028776e-38
0.870954 0.447624 -0.058590 2.341805152028776e-38
0.881386 0.446948 -0.059120 2.341805152028776e-38
0.927524 0.464081 -0.062043 2.341805152028776e-38
0.774856 0.514400 -0.060125 2.341805152028776e-38
0.776948 0.509417 -0.060062 2.341805152028776e-38
0.778983 0.504465 -0.060002 2.341805152028776e-38
0.779296 0.498447 -0.059814 2.341805152028776e-38
0.782097 0.494041 -0.059817 2.341805152028776e-38
0.784872 0.489619 -0.059818 2.341805152028776e-38
0.786773 0.484658 -0.059752 2.341805152028776e-38
0.791179 0.481284 -0.059883 2.341805152028776e-38
0.795560 0.477894 -0.060015 2.341805152028776e-38
0.798212 0.473452 -0.060015 2.341805152028776e-38
0.799116 0.467987 -0.059885 2.341805152028776e-38
0.800848 0.463026 -0.059817 2.341805152028776e-38
0.802530 0.458096 -0.059752 2.341805152028776e-38
0.805908 0.454161 -0.059816 2.341805152028776e-38
0.809268 0.450204 -0.059879 2.341805152028776e-38
0.812609 0.446224 -0.059940 2.341805152028776e-38
0.812420 0.440318 -0.059742 2.341805152028776e-38
0.816574 0.436815 -0.059868 2.341805152028776e-38
0.820700 0.433303 -0.059996 2.341805152028776e-38
0.823043 0.428837 -0.059993 2.341805152028776e-38
0.823586 0.423446 -0.059859 2.341805152028776e-38
0.825875 0.418965 -0.059852 2.341805152028776e-38
0.852218 0.426562 -0.061589 2.341805152028776e-38
0.875969 0.432590 -0.063135 2.341805152028776e-38
0.772006 0.512741 -0.064370 2.341805152028776e-38
0.774923 0.508322 -0.064373 2.341805152028776e-38
0.775283 0.502289 -0.064169 2.341805152028776e-38
0.777265 0.497368 -0.064105 2.341805152028776e-38
0.779216 0.492440 -0.064039 2.341805152028776e-38
0.781137 0.487506 -0.063971 2.341805152028776e-38
0.783027 0.482566 -0.063901 2.341805152028776e-38
0.786572 0.478687 -0.063972 2.341805152028776e-38
0.790938 0.475323 -0.064113 2.341805152028776e-38
0.793575 0.470907 -0.064114 2.341805152028776e-38
0.792745 0.464459 -0.063836 2.341805152028776e-38
0.794458 0.459534 -0.063763 2.341805152028776e-38
0.796125 0.454631 -0.063692 2.341805152028776e-38
0.800353 0.451222 -0.063831 2.341805152028776e-38
0.801081 0.445840 -0.063691 2.341805152028776e-38
0.802649 0.440944 -0.063619 2.341805152028776e-38
0.804186 0.436045 -0.063544 2.341805152028776e-38
0.806561 0.431638 -0.063541 2.341805152028776e-38
0.808013 0.426782 -0.063470 2.341805152028776e-38
0.808551 0.421463 -0.063329 2.341805152028776e-38
0.809942 0.416607 -0.063255 2.341805152028776e-38
0.813973 0.413104 -0.063386 2.341805152028776e-38
0.829575 0.415397 -0.064420 2.341805152028776e-38
0.835369 0.412709 -0.064695 2.341805152028776e-38
0.773287 0.513841 -0.068957 2.341805152028776e-38
0.773709 0.507773 -0.068738 2.341805152028776e-38
0.776582 0.503368 -0.068742 2.341805152028776e-38
0.777731 0.497901 -0.068600 2.341805152028776e-38
0.778843 0.492437 -0.068455 2.341805152028776e-38
0.780764 0.487505 -0.068383 2.341805152028776e-38
0.783502 0.483091 -0.068383 2.341805152028776e-38
0.786203 0.478683 -0.068383 2.341805152028776e-38
0.790568 0.475321 -0.068535 2.341805152028776e-38
0.792348 0.470398 -0.068462 2.341805152028776e-38
0.791516 0.463957 -0.068164 2.341805152028776e-38
0.794090 0.459538 -0.068161 2.341805152028776e-38
0.797494 0.455619 -0.068233 2.341805152028776e-38
0.798252 0.450243 -0.068085 2.341805152028776e-38
0.799847 0.445357 -0.068010 2.341805152028776e-38
0.802286 0.440949 -0.068007 2.341805152028776e-38
0.802948 0.435576 -0.067854 2.341805152028776e-38
0.803566 0.430225 -0.067700 2.341805152028776e-38
0.805892 0.425852 -0.067700 2.341805152028776e-38
0.807310 0.421006 -0.067623 2.341805152028776e-38
0.807813 0.415701 -0.067470 2.341805152028776e-38
0.810949 0.411757 -0.067537 2.341805152028776e-38
0.815843 0.408698 -0.067752 2.341805152028776e-38
0.815342 0.402990 -0.067528 2.341805152028776e-38
0.851554 0.415220 -0.070338 2.341805152028776e-38
0.771220 0.512733 -0.073248 2.341805152028776e-38
0.773304 0.507771 -0.073172 2.341805152028776e-38
0.776182 0.503360 -0.073176 2.341805152028776e-38
0.776492 0.497358 -0.072946 2.341805152028776e-38
0.779286 0.492967 -0.072950 2.341805152028776e-38
0.781211 0.488032 -0.072874 2.341805152028776e-38
0.781407 0.482045 -0.072637 2.341805152028776e-38
0.784107 0.477642 -0.072637 2.341805152028776e-38
0.788465 0.474291 -0.072798 2.341805152028776e-38
0.789383 0.468870 -0.072642 2.341805152028776e-38
0.789404 0.462950 -0.072405 2.341805152028776e-38
0.791110 0.458044 -0.072323 2.341805152028776e-38
0.794510 0.454133 -0.072398 2.341805152028776e-38
0.796129 0.449263 -0.072320 2.341805152028776e-38
0.796848 0.443904 -0.072162 2.341805152028776e-38
0.798406 0.439032 -0.072080 2.341805152028776e-38
0.799934 0.434156 -0.071996 2.341805152028776e-38
0.801429 0.429284 -0.071910 2.341805152028776e-38
0.803750 0.424922 -0.071910 2.341805152028776e-38
0.803396 0.419165 -0.071671 2.341805152028776e-38
0.803003 0.413425 -0.071429 2.341805152028776e-38
0.806127 0.409508 -0.071501 2.341805152028776e-38
0.811012 0.406466 -0.071729 2.341805152028776e-38
0.814075 0.402551 -0.071806 2.341805152028776e-38
0.836829 0.408232 -0.073616 2.341805152028776e-38
0.772448 0.513832 -0.077853 2.341805152028776e-38
0.773706 0.508315 -0.077690 2.341805152028776e-38
0.775756 0.503352 -0.077609 2.341805152028776e-38
0.777745 0.498427 -0.077533 2.341805152028776e-38
0.779704 0.493496 -0.077455 2.341805152028776e-38
0.779942 0.487503 -0.077206 2.341805152028776e-38
0.782681 0.483093 -0.077207 2.341805152028776e-38
0.783690 0.477637 -0.077038 2.341805152028776e-38
0.789755 0.475316 -0.077377 2.341805152028776e-38
0.790679 0.469888 -0.077212 2.341805152028776e-38
0.790707 0.463960 -0.076960 2.341805152028776e-38
0.792419 0.459047 -0.076874 2.341805152028776e-38
0.794964 0.454625 -0.076869 2.341805152028776e-38
0.794851 0.448773 -0.076620 2.341805152028776e-38
0.795568 0.443421 -0.076452 2.341805152028776e-38
0.799743 0.439996 -0.076616 2.341805152028776e-38
0.801277 0.435113 -0.076527 2.341805152028776e-38
0.801903 0.429756 -0.076353 2.341805152028776e-38
0.805109 0.425856 -0.076436 2.341805152028776e-38
0.806528 0.421013 -0.076350 2.341805152028776e-38
0.805261 0.414800 -0.076010 2.341805152028776e-38
0.808391 0.410870 -0.076087 2.341805152028776e-38
0.813284 0.407813 -0.076329 2.341805152028776e-38
0.814571 0.402996 -0.076242 2.341805152028776e-38
0.837318 0.408674 -0.078162 2.341805152028776e-38
0.769503 0.512171 -0.082036 2.341805152028776e-38
0.771585 0.507218 -0.081952 2.341805152028776e-38
0.773635 0.502258 -0.081866 2.341805152028776e-38
0.778134 0.498958 -0.082051 2.341805152028776e-38
0.779254 0.493492 -0.081880 2.341805152028776e-38
0.781183 0.488557 -0.081795 2.341805152028776e-38
0.782233 0.483094 -0.081619 2.341805152028776e-38
0.784947 0.478672 -0.081617 2.341805152028776e-38
0.788458 0.474798 -0.081709 2.341805152028776e-38
0.790236 0.469887 -0.081624 2.341805152028776e-38
0.789407 0.463457 -0.081270 2.341805152028776e-38
0.791116 0.458551 -0.081179 2.341805152028776e-38
0.792795 0.453640 -0.081085 2.341805152028776e-38
0.793550 0.448282 -0.080909 2.341805152028776e-38
0.795136 0.443422 -0.080821 2.341805152028776e-38
0.795819 0.438079 -0.080641 2.341805152028776e-38
0.799093 0.434168 -0.080725 2.341805152028776e-38
0.801471 0.429765 -0.080717 2.341805152028776e-38
0.803801 0.425391 -0.080715 2.341805152028776e-38
0.805218 0.420556 -0.080625 2.341805152028776e-38
0.803950 0.414349 -0.080267 2.341805152028776e-38
0.807078 0.410427 -0.080348 2.341805152028776e-38
0.811967 0.407377 -0.080604 2.341805152028776e-38
0.813257 0.402556 -0.080511 2.341805152028776e-38
0.832411 0.406493 -0.082187 2.341805152028776e-38
0.877655 0.422772 -0.086423 2.341805152028776e-38
0.770679 0.513268 -0.086656 2.341805152028776e-38
0.773599 0.508856 -0.086661 2.341805152028776e-38
0.777329 0.504969 -0.086757 2.341805152028776e-38
0.778496 0.499489 -0.086578 2.341805152028776e-38
0.779621 0.494020 -0.086398 2.341805152028776e-38
0.781553 0.489083 -0.086309 2.341805152028776e-38
0.784300 0.484664 -0.086310 2.341805152028776e-38
0.787023 0.480230 -0.086309 2.341805152028776e-38
0.790549 0.476336 -0.086405 2.341805152028776e-38
0.791480 0.470903 -0.086222 2.341805152028776e-38
0.792376 0.465476 -0.086036 2.341805152028776e-38
0.793235 0.460053 -0.085847 2.341805152028776e-38
0.794923 0.455131 -0.085749 2.341805152028776e-38
0.794826 0.449261 -0.085469 2.341805152028776e-38
0.794679 0.443424 -0.085190 2.341805152028776e-38
0.796235 0.438563 -0.085094 2.341805152028776e-38
0.800387 0.435126 -0.085276 2.341805152028776e-38
0.803647 0.431186 -0.085362 2.341805152028776e-38
0.806871 0.427255 -0.085451 2.341805152028776e-38
0.805651 0.421020 -0.085077 2.341805152028776e-38
0.805272 0.415267 -0.084793 2.341805152028776e-38
0.808404 0.411338 -0.084879 2.341805152028776e-38
0.812407 0.407834 -0.085056 2.341805152028776e-38
0.814598 0.403442 -0.085050 2.341805152028776e-38
0.832853 0.406934 -0.086724 2.341805152028776e-38
0.872695 0.420618 -0.090630 2.341805152028776e-38
0.769343 0.512709 -0.091000 2.341805152028776e-38
0.771429 0.507757 -0.090908 2.341805152028776e-38
0.772649 0.502256 -0.090716 2.341805152028776e-38
0.776320 0.498405 -0.090820 2.341805152028776e-38
0.777440 0.492949 -0.090632 2.341805152028776e-38
0.779366 0.488024 -0.090538 2.341805152028776e-38
0.782108 0.483617 -0.090540 2.341805152028776e-38
0.783975 0.478677 -0.090441 2.341805152028776e-38
0.787498 0.474790 -0.090541 2.341805152028776e-38
0.789277 0.469883 -0.090447 2.341805152028776e-38
0.789310 0.463963 -0.090154 2.341805152028776e-38
0.791023 0.459057 -0.090054 2.341805152028776e-38
0.793570 0.454642 -0.090050 2.341805152028776e-38
0.794344 0.449259 -0.089852 2.341805152028776e-38
0.793329 0.442939 -0.089461 2.341805152028776e-38
0.795755 0.438566 -0.089459 2.341805152028776e-38
0.800779 0.435607 -0.089748 2.341805152028776e-38
0.803165 0.431194 -0.089741 2.341805152028776e-38
0.805515 0.426790 -0.089735 2.341805152028776e-38
0.806059 0.421484 -0.089538 2.341805152028776e-38
0.805684 0.415729 -0.089240 2.341805152028776e-38
0.808818 0.411797 -0.089332 2.341805152028776e-38
0.811933 0.407845 -0.089420 2.341805152028776e-38
0.812347 0.402559 -0.089216 2.341805152028776e-38
0.829694 0.405627 -0.090878 2.341805152028776e-38
0.870403 0.419760 -0.095084 2.341805152028776e-38
0.769638 0.513253 -0.095541 2.341805152028776e-38
0.773389 0.509393 -0.095650 2.341805152028776e-38
0.775453 0.504423 -0.095552 2.341805152028776e-38
0.777469 0.499471 -0.095454 2.341805152028776e-38
0.778596 0.494008 -0.095257 2.341805152028776e-38
0.779685 0.488549 -0.095057 2.341805152028776e-38
0.782430 0.484140 -0.095059 2.341805152028776e-38
0.783453 0.478679 -0.094853 2.341805152028776e-38
0.784426 0.473243 -0.094649 2.341805152028776e-38
0.786197 0.468353 -0.094550 2.341805152028776e-38
0.789653 0.464468 -0.094655 2.341805152028776e-38
0.792229 0.460059 -0.094653 2.341805152028776e-38
0.795644 0.456132 -0.094752 2.341805152028776e-38
0.796434 0.450726 -0.094543 2.341805152028776e-38
0.797166 0.445365 -0.094338 2.341805152028776e-38
0.800477 0.441451 -0.094440 2.341805152028776e-38
0.802021 0.436564 -0.094333 2.341805152028776e-38
0.804411 0.432144 -0.094326 2.341805152028776e-38
0.806773 0.427721 -0.094318 2.341805152028776e-38
0.808204 0.422870 -0.094214 2.341805152028776e-38
0.806955 0.416647 -0.093800 2.341805152028776e-38
0.810093 0.412708 -0.093897 2.341805152028776e-38
0.814102 0.409195 -0.094093 2.341805152028776e-38
0.815421 0.404328 -0.093979 2.341805152028776e-38
0.835449 0.408690 -0.096031 2.341805152028776e-38
0.868089 0.418902 -0.099518 2.341805152028776e-38
0.770734 0.514348 -0.100198 2.341805152028776e-38
0.772830 0.509388 -0.100098 2.341805152028776e-38
0.774061 0.503878 -0.099888 2.341805152028776e-38
0.775245 0.498386 -0.099677 2.341805152028776e-38
0.778046 0.494001 -0.099686 2.341805152028776e-38
0.780821 0.489601 -0.099692 2.341805152028776e-38
0.782727 0.484662 -0.099588 2.341805152028776e-38
0.787146 0.481274 -0.099803 2.341805152028776e-38
0.792397 0.478375 -0.100125 2.341805152028776e-38
0.790781 0.471404 -0.099592 2.341805152028776e-38
0.791683 0.465980 -0.099380 2.341805152028776e-38
0.793409 0.461061 -0.099271 2.341805152028776e-38
0.794241 0.455642 -0.099053 2.341805152028776e-38
0.795037 0.450233 -0.098832 2.341805152028776e-38
0.796635 0.445365 -0.098726 2.341805152028776e-38
0.799074 0.440973 -0.098725 2.341805152028776e-38
0.800616 0.436094 -0.098614 2.341805152028776e-38
0.803880 0.432153 -0.098715 2.341805152028776e-38
0.806247 0.427724 -0.098705 2.341805152028776e-38
0.805919 0.421949 -0.098382 2.341805152028776e-38
0.804667 0.415739 -0.097949 2.341805152028776e-38
0.807800 0.411813 -0.098051 2.341805152028776e-38
0.812690 0.408759 -0.098364 2.341805152028776e-38
0.814900 0.404339 -0.098353 2.341805152028776e-38
0.827778 0.405197 -0.099638 2.341805152028776e-38
0.854113 0.412423 -0.102536 2.341805152028776e-38
0.771801 0.515442 -0.104874 2.341805152028776e-38
0.773075 0.509928 -0.104658 2.341805152028776e-38
0.774310 0.504417 -0.104439 2.341805152028776e-38
0.775506 0.498912 -0.104217 2.341805152028776e-38
0.779148 0.495059 -0.104340 2.341805152028776e-38
0.779404 0.489067 -0.104010 2.341805152028776e-38
0.787220 0.487800 -0.104688 2.341805152028776e-38
0.799284 0.489054 -0.105924 2.341805152028776e-38
0.796078 0.480939 -0.105136 2.341805152028776e-38
0.791067 0.471909 -0.104130 2.341805152028776e-38
0.791117 0.465979 -0.103796 2.341805152028776e-38
0.794561 0.462062 -0.103909 2.341805152028776e-38
0.796262 0.457132 -0.103793 2.341805152028776e-38
0.797069 0.451708 -0.103562 2.341805152028776e-38
0.796947 0.445849 -0.103226 2.341805152028776e-38
0.799389 0.441456 -0.103226 2.341805152028776e-38
0.800934 0.436574 -0.103110 2.341805152028776e-38
0.804200 0.432631 -0.103217 2.341805152028776e-38
0.805691 0.427735 -0.103095 2.341805152028776e-38
0.806252 0.422412 -0.102867 2.341805152028776e-38
0.805005 0.416199 -0.102415 2.341805152028776e-38
0.808140 0.412271 -0.102522 2.341805152028776e-38
0.812144 0.408769 -0.102739 2.341805152028776e-38
0.814353 0.404352 -0.102727 2.341805152028776e-38
0.829017 0.406073 -0.104292 2.341805152028776e-38
0.844604 0.408106 -0.105972 2.341805152028776e-38
0.769538 0.514328 -0.109100 2.341805152028776e-38
0.772464 0.509920 -0.109110 2.341805152028776e-38
0.774533 0.504955 -0.108999 2.341805152028776e-38
0.777405 0.500520 -0.109002 2.341805152028776e-38
0.778546 0.495049 -0.108778 2.341805152028776e-38
0.780487 0.490118 -0.108669 2.341805152028776e-38
0.786617 0.487797 -0.109142 2.341805152028776e-38
0.792745 0.485424 -0.109612 2.341805152028776e-38
0.781874 0.472722 -0.107737 2.341805152028776e-38
0.783653 0.467832 -0.107623 2.341805152028776e-38
0.789670 0.465473 -0.108096 2.341805152028776e-38
0.794828 0.462562 -0.108448 2.341805152028776e-38
0.797394 0.458125 -0.108445 2.341805152028776e-38
0.798207 0.452695 -0.108205 2.341805152028776e-38
0.798100 0.446818 -0.107853 2.341805152028776e-38
0.798808 0.441457 -0.107619 2.341805152028776e-38
0.800354 0.436579 -0.107499 2.341805152028776e-38
0.803620 0.432639 -0.107611 2.341805152028776e-38
0.806866 0.428677 -0.107719 2.341805152028776e-38
0.806561 0.422873 -0.107362 2.341805152028776e-38
0.806201 0.417115 -0.107009 2.341805152028776e-38
0.806687 0.411826 -0.106770 2.341805152028776e-38
0.812461 0.409225 -0.107230 2.341805152028776e-38
0.814673 0.404807 -0.107219 2.341805152028776e-38
0.826662 0.405201 -0.108496 2.341805152028776e-38
0.839553 0.405949 -0.109898 2.341805152028776e-38
0.770552 0.515419 -0.113794 2.341805152028776e-38
0.772656 0.510459 -0.113683 2.341805152028776e-38
0.775560 0.506034 -0.113690 2.341805152028776e-38
0.777604 0.501056 -0.113573 2.341805152028776e-38
0.780432 0.496638 -0.113581 2.341805152028776e-38
0.781542 0.491167 -0.113346 2.341805152028776e-38
0.782615 0.485700 -0.113108 2.341805152028776e-38
0.782805 0.479719 -0.112745 2.341805152028776e-38
0.782103 0.473238 -0.112257 2.341805152028776e-38
0.787301 0.470371 -0.112624 2.341805152028776e-38
0.791620 0.466983 -0.112873 2.341805152028776e-38
0.795926 0.463562 -0.113118 2.341805152028776e-38
0.796777 0.458129 -0.112872 2.341805152028776e-38
0.798455 0.453192 -0.112745 2.341805152028776e-38
0.798360 0.447300 -0.112376 2.341805152028776e-38
0.799073 0.441938 -0.112134 2.341805152028776e-38
0.801493 0.437534 -0.112132 2.341805152028776e-38
0.803889 0.433117 -0.112127 2.341805152028776e-38
0.806261 0.428688 -0.112118 2.341805152028776e-38
0.807723 0.423795 -0.111987 2.341805152028776e-38
0.805608 0.417118 -0.111377 2.341805152028776e-38
0.807862 0.412735 -0.111373 2.341805152028776e-38
0.812752 0.409681 -0.111731 2.341805152028776e-38
0.814967 0.405261 -0.111721 2.341805152028776e-38
0.826068 0.405202 -0.112925 2.341805152028776e-38
0.833590 0.403359 -0.113654 2.341805152028776e-38
0.769064 0.514854 -0.118127 2.341805152028776e-38
0.769511 0.508808 -0.117759 2.341805152028776e-38
0.772406 0.504401 -0.117768 2.341805152028776e-38
0.776109 0.500516 -0.117899 2.341805152028776e-38
0.776432 0.494495 -0.117526 2.341805152028776e-38
0.778371 0.489575 -0.117409 2.341805152028776e-38
0.781121 0.485172 -0.117416 2.341805152028776e-38
0.783847 0.480755 -0.117419 2.341805152028776e-38
0.787396 0.476838 -0.117546 2.341805152028776e-38
0.789215 0.471891 -0.117419 2.341805152028776e-38
0.790125 0.466475 -0.117171 2.341805152028776e-38
0.793569 0.462563 -0.117301 2.341805152028776e-38
0.795276 0.457638 -0.117173 2.341805152028776e-38
0.796089 0.452219 -0.116915 2.341805152028776e-38
0.795999 0.446326 -0.116529 2.341805152028776e-38
0.798443 0.441938 -0.116531 2.341805152028776e-38
0.799993 0.437061 -0.116403 2.341805152028776e-38
0.802387 0.432652 -0.116399 2.341805152028776e-38
0.804756 0.428231 -0.116391 2.341805152028776e-38
0.804466 0.422415 -0.116000 2.341805152028776e-38
0.804110 0.416664 -0.115619 2.341805152028776e-38
0.807245 0.412741 -0.115742 2.341805152028776e-38
0.810362 0.408796 -0.115862 2.341805152028776e-38
0.814348 0.405273 -0.116105 2.341805152028776e-38
0.822771 0.403906 -0.116978 2.341805152028776e-38
0.826719 0.400337 -0.117226 2.341805152028776e-38
0.767553 0.514288 -0.122450 2.341805152028776e-38
0.769652 0.509344 -0.122331 2.341805152028776e-38
0.772550 0.504936 -0.122341 2.341805152028776e-38
0.774590 0.499974 -0.122216 2.341805152028776e-38
0.778264 0.496081 -0.122352 2.341805152028776e-38
0.780212 0.491150 -0.122232 2.341805152028776e-38
0.782972 0.486737 -0.122240 2.341805152028776e-38
0.785706 0.482309 -0.122244 2.341805152028776e-38
0.789264 0.478381 -0.122376 2.341805152028776e-38
0.791951 0.473920 -0.122374 2.341805152028776e-38
0.792873 0.468488 -0.122118 2.341805152028776e-38
0.794616 0.463560 -0.121990 2.341805152028776e-38
0.794610 0.457640 -0.121595 2.341805152028776e-38
0.797149 0.453205 -0.121591 2.341805152028776e-38
0.797933 0.447786 -0.121321 2.341805152028776e-38
0.800391 0.443378 -0.121322 2.341805152028776e-38
0.801950 0.438490 -0.121191 2.341805152028776e-38
0.803479 0.433600 -0.121056 2.341805152028776e-38
0.805853 0.429172 -0.121049 2.341805152028776e-38
0.807326 0.424272 -0.120907 2.341805152028776e-38
0.807870 0.418947 -0.120639 2.341805152028776e-38
0.809252 0.414100 -0.120505 2.341805152028776e-38
0.813260 0.410591 -0.120762 2.341805152028776e-38
0.815480 0.406169 -0.120753 2.341805152028776e-38
0.822123 0.403921 -0.121397 2.341805152028776e-38
0.822510 0.398610 -0.121125 2.341805152028776e-38
0.769309 0.515927 -0.127307 2.341805152028776e-38
0.770593 0.510426 -0.127049 2.341805152028776e-38
0.773496 0.506012 -0.127060 2.341805152028776e-38
0.775543 0.501045 -0.126931 2.341805152028776e-38
0.776723 0.495539 -0.126662 2.341805152028776e-38
0.777834 0.490083 -0.126402 2.341805152028776e-38
0.781428 0.486207 -0.126547 2.341805152028776e-38
0.785004 0.482306 -0.126689 2.341805152028776e-38
0.788560 0.478381 -0.126827 2.341805152028776e-38
0.790398 0.473415 -0.126688 2.341805152028776e-38
0.790475 0.467473 -0.126284 2.341805152028776e-38
0.792212 0.462559 -0.126153 2.341805152028776e-38
0.793920 0.457641 -0.126017 2.341805152028776e-38
0.796459 0.453210 -0.126014 2.341805152028776e-38
0.797245 0.447795 -0.125735 2.341805152028776e-38
0.798845 0.442895 -0.125597 2.341805152028776e-38
0.801270 0.438491 -0.125598 2.341805152028776e-38
0.803672 0.434075 -0.125595 2.341805152028776e-38
0.806049 0.429647 -0.125589 2.341805152028776e-38
0.806648 0.424284 -0.125307 2.341805152028776e-38
0.806323 0.418491 -0.124890 2.341805152028776e-38
0.809467 0.414555 -0.125025 2.341805152028776e-38
0.812592 0.410599 -0.125156 2.341805152028776e-38
0.814811 0.406179 -0.125147 2.341805152028776e-38
0.818785 0.402623 -0.125407 2.341805152028776e-38
0.815609 0.395585 -0.124577 2.341805152028776e-38
0.771035 0.517565 -0.132192 2.341805152028776e-38
0.770679 0.510959 -0.131645 2.341805152028776e-38
0.773586 0.506544 -0.131657 2.341805152028776e-38
0.776468 0.502114 -0.131665 2.341805152028776e-38
0.778489 0.497135 -0.131529 2.341805152028776e-38
0.778782 0.491128 -0.131116 2.341805152028776e-38
0.782382 0.487245 -0.131267 2.341805152028776e-38
0.785963 0.483339 -0.131415 2.341805152028776e-38
0.789524 0.479408 -0.131559 2.341805152028776e-38
0.790519 0.473927 -0.131276 2.341805152028776e-38
0.790610 0.467971 -0.130854 2.341805152028776e-38
0.794061 0.464055 -0.131001 2.341805152028776e-38
0.795778 0.459126 -0.130862 2.341805152028776e-38
0.798325 0.454684 -0.130860 2.341805152028776e-38
0.799984 0.449743 -0.130714 2.341805152028776e-38
0.800738 0.444333 -0.130426 2.341805152028776e-38
0.802304 0.439443 -0.130287 2.341805152028776e-38
0.804710 0.435021 -0.130285 2.341805152028776e-38
0.807092 0.430587 -0.130280 2.341805152028776e-38
0.807698 0.425218 -0.129989 2.341805152028776e-38
0.807389 0.419403 -0.129554 2.341805152028776e-38
0.812300 0.416365 -0.129976 2.341805152028776e-38
0.812783 0.411052 -0.129690 2.341805152028776e-38
0.816777 0.407515 -0.129964 2.341805152028776e-38
0.819868 0.403511 -0.130094 2.341805152028776e-38
0.811361 0.393867 -0.128388 2.341805152028776e-38
0.771909 0.518650 -0.136960 2.341805152028776e-38
0.773212 0.513132 -0.136686 2.341805152028776e-38
0.774476 0.507618 -0.136408 2.341805152028776e-38
0.775702 0.502107 -0.136127 2.341805152028776e-38
0.777725 0.497132 -0.135987 2.341805152028776e-38
0.778866 0.491643 -0.135702 2.341805152028776e-38
0.781629 0.487236 -0.135714 2.341805152028776e-38
0.785209 0.483333 -0.135868 2.341805152028776e-38
0.787924 0.478893 -0.135872 2.341805152028776e-38
0.788918 0.473420 -0.135581 2.341805152028776e-38
0.789869 0.467963 -0.135288 2.341805152028776e-38
0.793319 0.464050 -0.135440 2.341805152028776e-38
0.795893 0.459620 -0.135444 2.341805152028776e-38
0.798442 0.455177 -0.135443 2.341805152028776e-38
0.797518 0.448780 -0.134855 2.341805152028776e-38
0.800008 0.444330 -0.134847 2.341805152028776e-38
0.801574 0.439442 -0.134703 2.341805152028776e-38
0.804851 0.435495 -0.134849 2.341805152028776e-38
0.806363 0.430593 -0.134698 2.341805152028776e-38
0.807846 0.425690 -0.134544 2.341805152028776e-38
0.809299 0.420784 -0.134387 2.341805152028776e-38
0.811581 0.416366 -0.134383 2.341805152028776e-38
0.813832 0.411951 -0.134380 2.341805152028776e-38
0.814288 0.406640 -0.134081 2.341805152028776e-38
0.817374 0.402650 -0.134217 2.341805152028776e-38
0.808872 0.393019 -0.132454 2.341805152028776e-38
0.773575 0.520285 -0.141896 2.341805152028776e-38
0.773241 0.513663 -0.141313 2.341805152028776e-38
0.773684 0.507605 -0.140877 2.341805152028776e-38
0.775742 0.502636 -0.140738 2.341805152028776e-38
0.777768 0.497660 -0.140595 2.341805152028776e-38
0.778924 0.492157 -0.140298 2.341805152028776e-38
0.781689 0.487749 -0.140311 2.341805152028776e-38
0.785271 0.483845 -0.140471 2.341805152028776e-38
0.787989 0.479404 -0.140477 2.341805152028776e-38
0.788987 0.473931 -0.140177 2.341805152028776e-38
0.791650 0.469471 -0.140174 2.341805152028776e-38
0.795111 0.465543 -0.140331 2.341805152028776e-38
0.797693 0.461102 -0.140336 2.341805152028776e-38
0.798534 0.455669 -0.140035 2.341805152028776e-38
0.798477 0.449756 -0.139580 2.341805152028776e-38
0.800108 0.444821 -0.139421 2.341805152028776e-38
0.803421 0.440867 -0.139571 2.341805152028776e-38
0.807574 0.437380 -0.139873 2.341805152028776e-38
0.808225 0.431997 -0.139568 2.341805152028776e-38
0.810591 0.427544 -0.139561 2.341805152028776e-38
0.810301 0.421711 -0.139098 2.341805152028776e-38
0.812598 0.417270 -0.139090 2.341805152028776e-38
0.813972 0.412402 -0.138938 2.341805152028776e-38
0.817085 0.408417 -0.139082 2.341805152028776e-38
0.817519 0.403099 -0.138772 2.341805152028776e-38
0.808140 0.393034 -0.136802 2.341805152028776e-38
0.770293 0.518607 -0.145928 2.341805152028776e-38
0.771598 0.513098 -0.145639 2.341805152028776e-38
0.773692 0.508133 -0.145501 2.341805152028776e-38
0.773267 0.501551 -0.144892 2.341805152028776e-38
0.774457 0.496056 -0.144590 2.341805152028776e-38
0.778113 0.492150 -0.144750 2.341805152028776e-38
0.779209 0.486690 -0.144451 2.341805152028776e-38
0.781102 0.481763 -0.144307 2.341805152028776e-38
0.784653 0.477859 -0.144469 2.341805152028776e-38
0.788184 0.473931 -0.144627 2.341805152028776e-38
0.791695 0.469980 -0.144781 2.341805152028776e-38
0.795168 0.466035 -0.144939 2.341805152028776e-38
0.797754 0.461594 -0.144945 2.341805152028776e-38
0.798599 0.456160 -0.144636 2.341805152028776e-38
0.797687 0.449761 -0.144012 2.341805152028776e-38
0.800181 0.445310 -0.144006 2.341805152028776e-38
0.802640 0.440864 -0.144001 2.341805152028776e-38
0.807660 0.437851 -0.144469 2.341805152028776e-38
0.809187 0.432934 -0.144311 2.341805152028776e-38
0.809810 0.427553 -0.143995 2.341805152028776e-38
0.809523 0.421723 -0.143518 2.341805152028776e-38
0.811830 0.417270 -0.143505 2.341805152028776e-38
0.814086 0.412852 -0.143505 2.341805152028776e-38
0.815434 0.407982 -0.143345 2.341805152028776e-38
0.817639 0.403547 -0.143336 2.341805152028776e-38
0.810049 0.394346 -0.141616 2.341805152028776e-38
0.770255 0.519148 -0.150575 2.341805152028776e-38
0.771575 0.513625 -0.150274 2.341805152028776e-38
0.772023 0.507575 -0.149813 2.341805152028776e-38
0.774910 0.503152 -0.149827 2.341805152028776e-38
0.776111 0.497647 -0.149517 2.341805152028776e-38
0.778941 0.493203 -0.149523 2.341805152028776e-38
0.780055 0.487723 -0.149212 2.341805152028776e-38
0.782795 0.483309 -0.149224 2.341805152028776e-38
0.787196 0.479909 -0.149553 2.341805152028776e-38
0.789892 0.475457 -0.149557 2.341805152028776e-38
0.792563 0.470992 -0.149557 2.341805152028776e-38
0.795199 0.466526 -0.149556 2.341805152028776e-38
0.796933 0.461590 -0.149403 2.341805152028776e-38
0.798637 0.456649 -0.149246 2.341805152028776e-38
0.799451 0.451221 -0.148925 2.341805152028776e-38
0.801953 0.446759 -0.148920 2.341805152028776e-38
0.804431 0.442286 -0.148910 2.341805152028776e-38
0.806853 0.437851 -0.148914 2.341805152028776e-38
0.810121 0.433869 -0.149073 2.341805152028776e-38
0.809878 0.428022 -0.148588 2.341805152028776e-38
0.811347 0.423104 -0.148419 2.341805152028776e-38
0.813663 0.418637 -0.148406 2.341805152028776e-38
0.818575 0.415535 -0.148882 2.341805152028776e-38
0.819938 0.410640 -0.148718 2.341805152028776e-38
0.823043 0.406618 -0.148871 2.341805152028776e-38
0.814592 0.396954 -0.146939 2.341805152028776e-38
0.768554 0.518585 -0.154902 2.341805152028776e-38
0.769062 0.512509 -0.154424 2.341805152028776e-38
0.771154 0.507558 -0.154280 2.341805152028776e-38
0.775695 0.504214 -0.154626 2.341805152028776e-38
0.778564 0.499770 -0.154637 2.341805152028776e-38
0.779740 0.494255 -0.154315 2.341805152028776e-38
0.780872 0.488755 -0.153991 2.341805152028776e-38
0.782779 0.483817 -0.153840 2.341805152028776e-38
0.785497 0.479388 -0.153850 2.341805152028776e-38
0.789035 0.475454 -0.154020 2.341805152028776e-38
0.791706 0.470993 -0.154022 2.341805152028776e-38
0.793501 0.466019 -0.153853 2.341805152028776e-38
0.796088 0.461584 -0.153861 2.341805152028776e-38
0.796081 0.455668 -0.153371 2.341805152028776e-38
0.796032 0.449768 -0.152877 2.341805152028776e-38
0.799388 0.445805 -0.153038 2.341805152028776e-38
0.802724 0.441821 -0.153194 2.341805152028776e-38
0.805154 0.437378 -0.153193 2.341805152028776e-38
0.808419 0.433405 -0.153359 2.341805152028776e-38
0.809048 0.428028 -0.153026 2.341805152028776e-38
0.809643 0.422658 -0.152688 2.341805152028776e-38
0.812834 0.418651 -0.152841 2.341805152028776e-38
0.815995 0.414642 -0.152996 2.341805152028776e-38
0.819118 0.410644 -0.153159 2.341805152028776e-38
0.821338 0.406189 -0.153153 2.341805152028776e-38
0.814668 0.397399 -0.151495 2.341805152028776e-38
0.770912 0.520778 -0.160066 2.341805152028776e-38
0.770627 0.514126 -0.159402 2.341805152028776e-38
0.771906 0.508623 -0.159085 2.341805152028776e-38
0.775625 0.504736 -0.159272 2.341805152028776e-38
0.776838 0.499227 -0.158947 2.341805152028776e-38
0.778014 0.493721 -0.158616 2.341805152028776e-38
0.780822 0.489266 -0.158621 2.341805152028776e-38
0.781899 0.483804 -0.158295 2.341805152028776e-38
0.784617 0.479380 -0.158307 2.341805152028776e-38
0.788153 0.475450 -0.158483 2.341805152028776e-38
0.789978 0.470490 -0.158316 2.341805152028776e-38
0.791771 0.465525 -0.158145 2.341805152028776e-38
0.793513 0.460587 -0.157979 2.341805152028776e-38
0.794358 0.455175 -0.157646 2.341805152028776e-38
0.795167 0.449769 -0.157308 2.341805152028776e-38
0.798523 0.445811 -0.157475 2.341805152028776e-38
0.800132 0.440880 -0.157299 2.341805152028776e-38
0.806030 0.438316 -0.157972 2.341805152028776e-38
0.808431 0.433872 -0.157974 2.341805152028776e-38
0.809936 0.428955 -0.157802 2.341805152028776e-38
0.808791 0.422667 -0.157117 2.341805152028776e-38
0.811981 0.418665 -0.157276 2.341805152028776e-38
0.816030 0.415089 -0.157600 2.341805152028776e-38
0.819155 0.411089 -0.157769 2.341805152028776e-38
0.822260 0.407071 -0.157935 2.341805152028776e-38
0.817375 0.399140 -0.156569 2.341805152028776e-38
0.769973 0.520763 -0.164570 2.341805152028776e-38
0.771334 0.515203 -0.164235 2.341805152028776e-38
0.772628 0.509687 -0.163908 2.341805152028776e-38
0.774702 0.504720 -0.163754 2.341805152028776e-38
0.775917 0.499215 -0.163420 2.341805152028776e-38
0.777095 0.493714 -0.163082 2.341805152028776e-38
0.778235 0.488217 -0.162739 2.341805152028776e-38
0.781830 0.484308 -0.162924 2.341805152028776e-38
0.783711 0.479369 -0.162763 2.341805152028776e-38
0.786404 0.474936 -0.162771 2.341805152028776e-38
0.787380 0.469480 -0.162427 2.341805152028776e-38
0.790017 0.465029 -0.162426 2.341805152028776e-38
0.790918 0.459588 -0.162077 2.341805152028776e-38
0.791759 0.454190 -0.161736 2.341805152028776e-38
0.792565 0.448798 -0.161390 2.341805152028776e-38
0.795913 0.444854 -0.161564 2.341805152028776e-38
0.800105 0.441364 -0.161907 2.341805152028776e-38
0.805147 0.438313 -0.162421 2.341805152028776e-38
0.808416 0.434337 -0.162598 2.341805152028776e-38
0.809925 0.429420 -0.162423 2.341805152028776e-38
0.809659 0.423588 -0.161895 2.341805152028776e-38
0.811103 0.418677 -0.161711 2.341805152028776e-38
0.813395 0.414212 -0.161698 2.341805152028776e-38
0.817405 0.410649 -0.162040 2.341805152028776e-38
0.818743 0.405765 -0.161863 2.341805152028776e-38
0.817397 0.399583 -0.161158 2.341805152028776e-38
0.771452 0.522401 -0.169611 2.341805152028776e-38
0.774460 0.517926 -0.169626 2.341805152028776e-38
0.774141 0.511290 -0.168928 2.341805152028776e-38
0.775402 0.505776 -0.168592 2.341805152028776e-38
0.777452 0.500799 -0.168430 2.341805152028776e-38
0.778640 0.495289 -0.168084 2.341805152028776e-38
0.781458 0.490829 -0.168092 2.341805152028776e-38
0.780898 0.484291 -0.167382 2.341805152028776e-38
0.782779 0.479358 -0.167218 2.341805152028776e-38
0.790524 0.477983 -0.168304 2.341805152028776e-38
0.789830 0.471494 -0.167593 2.341805152028776e-38
0.788240 0.464531 -0.166698 2.341805152028776e-38
0.790849 0.460076 -0.166694 2.341805152028776e-38
0.794258 0.456143 -0.166882 2.341805152028776e-38
0.795932 0.451222 -0.166708 2.341805152028776e-38
0.799293 0.447258 -0.166887 2.341805152028776e-38
0.801774 0.442798 -0.166884 2.341805152028776e-38
0.806821 0.439737 -0.167413 2.341805152028776e-38
0.808376 0.434801 -0.167231 2.341805152028776e-38
0.809888 0.429883 -0.167053 2.341805152028776e-38
0.808755 0.423594 -0.166333 2.341805152028776e-38
0.811075 0.419139 -0.166325 2.341805152028776e-38
0.812493 0.414227 -0.166134 2.341805152028776e-38
0.816513 0.410649 -0.166479 2.341805152028776e-38
0.819613 0.406644 -0.166657 2.341805152028776e-38
0.816509 0.399591 -0.165576 2.341805152028776e-38
0.772899 0.524037 -0.174679 2.341805152028776e-38
0.772649 0.517365 -0.173961 2.341805152028776e-38
0.773163 0.511265 -0.173425 2.341805152028776e-38
0.776895 0.507368 -0.173633 2.341805152028776e-38
0.778955 0.502381 -0.173468 2.341805152028776e-38
0.780154 0.496861 -0.173115 2.341805152028776e-38
0.781316 0.491346 -0.172756 2.341805152028776e-38
0.776596 0.482206 -0.171105 2.341805152028776e-38
0.789365 0.483968 -0.173328 2.341805152028776e-38
0.797129 0.482555 -0.174445 2.341805152028776e-38
0.793933 0.474515 -0.173164 2.341805152028776e-38
0.788980 0.465530 -0.171511 2.341805152028776e-38
0.789896 0.460081 -0.171141 2.341805152028776e-38
0.793315 0.456135 -0.171329 2.341805152028776e-38
0.794135 0.450733 -0.170968 2.341805152028776e-38
0.796635 0.446298 -0.170970 2.341805152028776e-38
0.799971 0.442327 -0.171152 2.341805152028776e-38
0.803287 0.438335 -0.171329 2.341805152028776e-38
0.805712 0.433865 -0.171321 2.341805152028776e-38
0.808088 0.429422 -0.171324 2.341805152028776e-38
0.807828 0.423599 -0.170770 2.341805152028776e-38
0.809274 0.418697 -0.170580 2.341805152028776e-38
0.812442 0.414687 -0.170754 2.341805152028776e-38
0.816468 0.411100 -0.171106 2.341805152028776e-38
0.818696 0.406646 -0.171103 2.341805152028776e-38
0.816480 0.400031 -0.170179 2.341805152028776e-38
0.771063 0.523464 -0.179020 2.341805152028776e-38
0.772446 0.517896 -0.178663 2.341805152028776e-38
0.775428 0.513415 -0.178677 2.341805152028776e-38
0.778356 0.508957 -0.178701 2.341805152028776e-38
0.779601 0.503429 -0.178345 2.341805152028776e-38
0.779981 0.497376 -0.177795 2.341805152028776e-38
0.781979 0.492384 -0.177618 2.341805152028776e-38
0.780609 0.485313 -0.176681 2.341805152028776e-38
0.796743 0.489089 -0.179712 2.341805152028776e-38
0.807049 0.489160 -0.181426 2.341805152028776e-38
0.797157 0.477030 -0.178604 2.341805152028776e-38
0.794763 0.469525 -0.177476 2.341805152028776e-38
0.793159 0.462558 -0.176532 2.341805152028776e-38
0.794050 0.457104 -0.176152 2.341805152028776e-38
0.794024 0.451212 -0.175595 2.341805152028776e-38
0.796527 0.446778 -0.175599 2.341805152028776e-38
0.799864 0.442807 -0.175788 2.341805152028776e-38
0.803181 0.438814 -0.175971 2.341805152028776e-38
0.806479 0.434801 -0.176150 2.341805152028776e-38
0.807999 0.429882 -0.175962 2.341805152028776e-38
0.809484 0.424971 -0.175773 2.341805152028776e-38
0.810939 0.420059 -0.175580 2.341805152028776e-38
0.814113 0.416040 -0.175760 2.341805152028776e-38
0.818144 0.412443 -0.176124 2.341805152028776e-38
0.819512 0.407522 -0.175925 2.341805152028776e-38
0.817307 0.400901 -0.174979 2.341805152028776e-38
0.770014 0.523441 -0.183544 2.341805152028776e-38
0.772214 0.518424 -0.183373 2.341805152028776e-38
0.776017 0.514486 -0.183583 2.341805152028776e-38
0.777322 0.508932 -0.183216 2.341805152028776e-38
0.776921 0.502343 -0.182465 2.341805152028776e-38
0.778952 0.497361 -0.182291 2.341805152028776e-38
0.780951 0.492374 -0.182111 2.341805152028776e-38
0.783751 0.487901 -0.182120 2.341805152028776e-38
0.791537 0.486502 -0.183287 2.341805152028776e-38
0.796786 0.483548 -0.183884 2.341805152028776e-38
0.787720 0.471979 -0.181186 2.341805152028776e-38
0.789527 0.467024 -0.181000 2.341805152028776e-38
0.790456 0.461570 -0.180614 2.341805152028776e-38
0.792198 0.456613 -0.180418 2.341805152028776e-38
0.793033 0.451205 -0.180037 2.341805152028776e-38
0.794680 0.446294 -0.179850 2.341805152028776e-38
0.798013 0.442333 -0.180045 2.341805152028776e-38
0.801327 0.438350 -0.180235 2.341805152028776e-38
0.804621 0.434346 -0.180421 2.341805152028776e-38
0.807019 0.429878 -0.180415 2.341805152028776e-38
0.807636 0.424516 -0.180030 2.341805152028776e-38
0.809960 0.420065 -0.180028 2.341805152028776e-38
0.813133 0.416050 -0.180214 2.341805152028776e-38
0.816287 0.412016 -0.180396 2.341805152028776e-38
0.817664 0.407087 -0.180186 2.341805152028776e-38
0.816344 0.400904 -0.179410 2.341805152028776e-38
0.769750 0.523967 -0.188265 2.341805152028776e-38
0.771954 0.518951 -0.188091 2.341805152028776e-38
0.774126 0.513928 -0.187912 2.341805152028776e-38
0.774623 0.507830 -0.187333 2.341805152028776e-38
0.776689 0.502853 -0.187161 2.341805152028776e-38
0.777897 0.497344 -0.186785 2.341805152028776e-38
0.780726 0.492885 -0.186801 2.341805152028776e-38
0.783530 0.488412 -0.186812 2.341805152028776e-38
0.788812 0.485466 -0.187413 2.341805152028776e-38
0.789872 0.479969 -0.187030 2.341805152028776e-38
0.789206 0.473482 -0.186251 2.341805152028776e-38
0.789336 0.467518 -0.185665 2.341805152028776e-38
0.791116 0.462559 -0.185471 2.341805152028776e-38
0.792865 0.457598 -0.185271 2.341805152028776e-38
0.792868 0.451680 -0.184677 2.341805152028776e-38
0.795374 0.447250 -0.184685 2.341805152028776e-38
0.798711 0.443284 -0.184887 2.341805152028776e-38
0.802029 0.439297 -0.185084 2.341805152028776e-38
0.805328 0.435288 -0.185276 2.341805152028776e-38
0.808606 0.431259 -0.185464 2.341805152028776e-38
0.808367 0.425428 -0.184872 2.341805152028776e-38
0.810697 0.420972 -0.184871 2.341805152028776e-38
0.813002 0.416506 -0.184866 2.341805152028776e-38
0.817031 0.412913 -0.185253 2.341805152028776e-38
0.820169 0.408854 -0.185436 2.341805152028776e-38
0.818875 0.402635 -0.184634 2.341805152028776e-38
0.768648 0.523939 -0.192791 2.341805152028776e-38
0.771665 0.519475 -0.192818 2.341805152028776e-38
0.773026 0.513911 -0.192434 2.341805152028776e-38
0.775167 0.508888 -0.192247 2.341805152028776e-38
0.775606 0.502829 -0.191661 2.341805152028776e-38
0.777642 0.497852 -0.191482 2.341805152028776e-38
0.780474 0.493394 -0.191500 2.341805152028776e-38
0.784941 0.489958 -0.191919 2.341805152028776e-38
0.789395 0.486490 -0.192333 2.341805152028776e-38
0.790477 0.480970 -0.191936 2.341805152028776e-38
0.788143 0.473469 -0.190734 2.341805152028776e-38
0.788276 0.467510 -0.190136 2.341805152028776e-38
0.790902 0.463051 -0.190142 2.341805152028776e-38
0.791807 0.457600 -0.189737 2.341805152028776e-38
0.792676 0.452156 -0.189326 2.341805152028776e-38
0.794332 0.447243 -0.189133 2.341805152028776e-38
0.795957 0.442331 -0.188935 2.341805152028776e-38
0.800127 0.438829 -0.189342 2.341805152028776e-38
0.804283 0.435296 -0.189744 2.341805152028776e-38
0.806696 0.430810 -0.189735 2.341805152028776e-38
0.807337 0.425425 -0.189325 2.341805152028776e-38
0.808798 0.420522 -0.189124 2.341805152028776e-38
0.811100 0.416065 -0.189121 2.341805152028776e-38
0.816873 0.413367 -0.189925 2.341805152028776e-38
0.818260 0.408433 -0.189709 2.341805152028776e-38
0.817859 0.402635 -0.189083 2.341805152028776e-38
0.770752 0.526114 -0.198147 2.341805152028776e-38
0.772970 0.521089 -0.197968 2.341805152028776e-38
0.774343 0.515517 -0.197577 2.341805152028776e-38
0.775676 0.509948 -0.197180 2.341805152028776e-38
0.776960 0.504399 -0.196784 2.341805152028776e-38
0.778182 0.498886 -0.196394 2.341805152028776e-38
0.781020 0.494423 -0.196415 2.341805152028776e-38
0.786320 0.491502 -0.197054 2.341805152028776e-38
0.788283 0.486483 -0.196856 2.341805152028776e-38
0.790215 0.481461 -0.196653 2.341805152028776e-38
0.788730 0.474462 -0.195631 2.341805152028776e-38
0.790554 0.469498 -0.195437 2.341805152028776e-38
0.794035 0.465520 -0.195653 2.341805152028776e-38
0.794110 0.459560 -0.195033 2.341805152028776e-38
0.794143 0.453617 -0.194407 2.341805152028776e-38
0.794969 0.448195 -0.193995 2.341805152028776e-38
0.797455 0.443753 -0.194003 2.341805152028776e-38
0.800774 0.439771 -0.194214 2.341805152028776e-38
0.804072 0.435768 -0.194419 2.341805152028776e-38
0.805626 0.430821 -0.194204 2.341805152028776e-38
0.805418 0.424963 -0.193570 2.341805152028776e-38
0.807745 0.420522 -0.193573 2.341805152028776e-38
0.811787 0.416964 -0.193988 2.341805152028776e-38
0.816688 0.413818 -0.194606 2.341805152028776e-38
0.818953 0.409322 -0.194596 2.341805152028776e-38
0.819439 0.403951 -0.194164 2.341805152028776e-38
0.769593 0.526080 -0.202689 2.341805152028776e-38
0.771812 0.521061 -0.202509 2.341805152028776e-38
0.774813 0.516579 -0.202535 2.341805152028776e-38
0.776971 0.511543 -0.202344 2.341805152028776e-38
0.776640 0.504905 -0.201509 2.341805152028776e-38
0.777869 0.499389 -0.201111 2.341805152028776e-38
0.779885 0.494404 -0.200922 2.341805152028776e-38
0.783525 0.490451 -0.201153 2.341805152028776e-38
0.786314 0.485961 -0.201165 2.341805152028776e-38
0.788244 0.480949 -0.200960 2.341805152028776e-38
0.788450 0.474949 -0.200334 2.341805152028776e-38
0.790278 0.469986 -0.200137 2.341805152028776e-38
0.791233 0.464524 -0.199723 2.341805152028776e-38
0.792996 0.459559 -0.199516 2.341805152028776e-38
0.793033 0.453620 -0.198878 2.341805152028776e-38
0.794727 0.448664 -0.198662 2.341805152028776e-38
0.797215 0.444222 -0.198672 2.341805152028776e-38
0.799679 0.439769 -0.198678 2.341805152028776e-38
0.802118 0.435305 -0.198678 2.341805152028776e-38
0.801947 0.429446 -0.198035 2.341805152028776e-38
0.803465 0.424517 -0.197812 2.341805152028776e-38
0.806667 0.420519 -0.198022 2.341805152028776e-38
0.810707 0.416966 -0.198449 2.341805152028776e-38
0.814733 0.413383 -0.198871 2.341805152028776e-38
0.817870 0.409334 -0.199075 2.341805152028776e-38
0.819234 0.404400 -0.198849 2.341805152028776e-38
0.770018 0.527147 -0.207664 2.341805152028776e-38
0.773863 0.523218 -0.207916 2.341805152028776e-38
0.776064 0.518179 -0.207728 2.341805152028776e-38
0.777418 0.512598 -0.207318 2.341805152028776e-38
0.777915 0.506489 -0.206684 2.341805152028776e-38
0.780813 0.502001 -0.206706 2.341805152028776e-38
0.782020 0.496475 -0.206298 2.341805152028776e-38
0.784844 0.491990 -0.206318 2.341805152028776e-38
0.786812 0.486977 -0.206116 2.341805152028776e-38
0.787916 0.481452 -0.205691 2.341805152028776e-38
0.788978 0.475938 -0.205262 2.341805152028776e-38
0.791652 0.471469 -0.205281 2.341805152028776e-38
0.793459 0.466493 -0.205077 2.341805152028776e-38
0.795235 0.461514 -0.204867 2.341805152028776e-38
0.795286 0.455562 -0.204217 2.341805152028776e-38
0.795295 0.449627 -0.203562 2.341805152028776e-38
0.798652 0.445640 -0.203785 2.341805152028776e-38
0.801124 0.441178 -0.203793 2.341805152028776e-38
0.802713 0.436238 -0.203578 2.341805152028776e-38
0.804272 0.431297 -0.203358 2.341805152028776e-38
0.804938 0.425898 -0.202915 2.341805152028776e-38
0.808161 0.421869 -0.203122 2.341805152028776e-38
0.811338 0.417860 -0.203343 2.341805152028776e-38
0.815366 0.414272 -0.203777 2.341805152028776e-38
0.818507 0.410219 -0.203988 2.341805152028776e-38
0.820752 0.405713 -0.203977 2.341805152028776e-38
0.772825 0.529864 -0.213322 2.341805152028776e-38
0.775069 0.524824 -0.213138 2.341805152028776e-38
0.775660 0.518693 -0.212504 2.341805152028776e-38
0.777019 0.513113 -0.212087 2.341805152028776e-38
0.778340 0.507537 -0.211663 2.341805152028776e-38
0.781258 0.503027 -0.211681 2.341805152028776e-38
0.782474 0.497496 -0.211265 2.341805152028776e-38
0.783652 0.491971 -0.210845 2.341805152028776e-38
0.786450 0.487477 -0.210862 2.341805152028776e-38
0.789223 0.482971 -0.210875 2.341805152028776e-38
0.791135 0.477946 -0.210659 2.341805152028776e-38
0.792993 0.472950 -0.210451 2.341805152028776e-38
0.793129 0.466976 -0.209801 2.341805152028776e-38
0.794066 0.461508 -0.209367 2.341805152028776e-38
0.794121 0.455561 -0.208705 2.341805152028776e-38
0.795831 0.450592 -0.208483 2.341805152028776e-38
0.797504 0.445629 -0.208259 2.341805152028776e-38
0.799975 0.441172 -0.208269 2.341805152028776e-38
0.802422 0.436703 -0.208274 2.341805152028776e-38
0.804844 0.432224 -0.208274 2.341805152028776e-38
0.804656 0.426364 -0.207601 2.341805152028776e-38
0.807884 0.422330 -0.207813 2.341805152028776e-38
0.810207 0.417857 -0.207811 2.341805152028776e-38
0.814232 0.414275 -0.208257 2.341805152028776e-38
0.818243 0.410663 -0.208698 2.341805152028776e-38
0.820491 0.406158 -0.208689 2.341805152028776e-38
0.773184 0.530925 -0.218346 2.341805152028776e-38
0.776241 0.526427 -0.218387 2.341805152028776e-38
0.775227 0.519204 -0.217288 2.341805152028776e-38
0.777404 0.514163 -0.217091 2.341805152028776e-38
0.778734 0.508583 -0.216661 2.341805152028776e-38
0.780844 0.503535 -0.216452 2.341805152028776e-38
0.781254 0.497469 -0.215797 2.341805152028776e-38
0.784908 0.493504 -0.216050 2.341805152028776e-38
0.787715 0.489002 -0.216071 2.341805152028776e-38
0.789666 0.483978 -0.215859 2.341805152028776e-38
0.792418 0.479454 -0.215868 2.341805152028776e-38
0.793464 0.473929 -0.215422 2.341805152028776e-38
0.794449 0.468445 -0.214987 2.341805152028776e-38
0.794555 0.462478 -0.214319 2.341805152028776e-38
0.796308 0.457498 -0.214100 2.341805152028776e-38
0.796336 0.451554 -0.213421 2.341805152028776e-38
0.798021 0.446579 -0.213191 2.341805152028776e-38
0.800507 0.442104 -0.213198 2.341805152028776e-38
0.803814 0.438098 -0.213432 2.341805152028776e-38
0.807101 0.434071 -0.213662 2.341805152028776e-38
0.807788 0.428654 -0.213205 2.341805152028776e-38
0.810164 0.424149 -0.213196 2.341805152028776e-38
0.810781 0.418746 -0.212732 2.341805152028776e-38
0.816545 0.416043 -0.213644 2.341805152028776e-38
0.819692 0.411981 -0.213870 2.341805152028776e-38
0.821948 0.407466 -0.213863 2.341805152028776e-38
0.771897 0.530893 -0.222929 2.341805152028776e-38
0.775770 0.526934 -0.223199 2.341805152028776e-38
0.776381 0.520796 -0.222543 2.341805152028776e-38
0.778569 0.515746 -0.222344 2.341805152028776e-38
0.778282 0.509093 -0.221444 2.341805152028776e-38
0.780396 0.504047 -0.221233 2.341805152028776e-38
0.782469 0.499007 -0.221022 2.341805152028776e-38
0.785307 0.494516 -0.221051 2.341805152028776e-38
0.785641 0.488469 -0.220379 2.341805152028776e-38
0.787590 0.483455 -0.220165 2.341805152028776e-38
0.789508 0.478438 -0.219945 2.341805152028776e-38
0.792228 0.473916 -0.219952 2.341805152028776e-38
