VERSION .7
FIELDS x y z rgb
SIZE 4 4 4 4
TYPE F F F F
COUNT 1 1 1 1
WIDTH 969
HEIGHT 1
VIEWPOINT 0 0 0 1 0 0 0
POINTS 969
DATA ascii
2.640764 1.460156 0.564985 2.341805152028776e-38
2.046805 1.474492 0.458867 2.341805152028776e-38
2.078339 1.460674 0.462238 2.341805152028776e-38
2.074629 1.440188 0.459634 2.341805152028776e-38
2.035049 1.395319 0.449137 2.341805152028776e-38
2.798814 1.566125 0.584375 2.341805152028776e-38
2.662819 1.470602 0.554247 2.341805152028776e-38
1.262346 0.841237 0.253473 2.341805152028776e-38
1.256421 0.826951 0.251364 2.341805152028776e-38
1.258644 0.818138 0.250896 2.341805152028776e-38
1.257152 0.868643 0.247656 2.341805152028776e-38
1.236879 0.844100 0.242724 2.341805152028776e-38
1.227006 0.826996 0.239865 2.341805152028776e-38
1.222688 0.813923 0.238135 2.341805152028776e-38
1.219070 0.801492 0.236564 2.341805152028776e-38
1.221146 0.792894 0.236106 2.341805152028776e-38
1.225656 0.785899 0.236122 2.341805152028776e-38
1.232629 0.780465 0.236612 2.341805152028776e-38
1.237877 0.773973 0.236786 2.341805152028776e-38
1.243065 0.767487 0.236966 2.341805152028776e-38
1.245691 0.759427 0.236659 2.341805152028776e-38
1.248266 0.751365 0.236345 2.341805152028776e-38
1.252487 0.744308 0.236344 2.341805152028776e-38
1.262613 0.740748 0.237465 2.341805152028776e-38
1.247040 0.871420 0.238997 2.341805152028776e-38
1.225229 0.845666 0.233908 2.341805152028776e-38
1.217855 0.830212 0.231604 2.341805152028776e-38
1.212802 0.816530 0.229760 2.341805152028776e-38
1.210867 0.805202 0.228551 2.341805152028776e-38
1.212970 0.796636 0.228112 2.341805152028776e-38
1.214187 0.787537 0.227511 2.341805152028776e-38
1.216171 0.778984 0.227058 2.341805152028776e-38
1.218097 0.770437 0.226599 2.341805152028776e-38
1.219923 0.761958 0.226152 2.341805152028776e-38
1.223363 0.754537 0.226013 2.341805152028776e-38
1.225914 0.746590 0.225713 2.341805152028776e-38
1.227569 0.738131 0.225251 2.341805152028776e-38
1.230865 0.730688 0.225093 2.341805152028776e-38
1.237497 0.725277 0.225565 2.341805152028776e-38
1.290257 0.746565 0.234429 2.341805152028776e-38
1.227324 0.856741 0.227741 2.341805152028776e-38
1.212724 0.836153 0.224160 2.341805152028776e-38
1.208551 0.822998 0.222527 2.341805152028776e-38
1.206712 0.811600 0.221345 2.341805152028776e-38
1.208035 0.802496 0.220774 2.341805152028776e-38
1.209294 0.793404 0.220196 2.341805152028776e-38
1.211318 0.784864 0.219762 2.341805152028776e-38
1.211619 0.775263 0.219021 2.341805152028776e-38
1.212681 0.766222 0.218425 2.341805152028776e-38
1.216986 0.759360 0.218446 2.341805152028776e-38
1.219569 0.751438 0.218160 2.341805152028776e-38
1.221256 0.742999 0.217716 2.341805152028776e-38
1.223735 0.735076 0.217417 2.341805152028776e-38
1.226164 0.727151 0.217111 2.341805152028776e-38
1.229350 0.719793 0.216971 2.341805152028776e-38
1.268435 0.733212 0.223152 2.341805152028776e-38
1.221317 0.851680 0.219209 2.341805152028776e-38
1.210741 0.833933 0.216468 2.341805152028776e-38
1.208182 0.821903 0.215176 2.341805152028776e-38
1.207956 0.811632 0.214327 2.341805152028776e-38
1.210101 0.803069 0.213918 2.341805152028776e-38
1.211360 0.793966 0.213357 2.341805152028776e-38
1.211724 0.784340 0.212643 2.341805152028776e-38
1.212017 0.774737 0.211924 2.341805152028776e-38
1.214731 0.766773 0.211643 2.341805152028776e-38
1.218199 0.759377 0.211516 2.341805152028776e-38
1.220780 0.751449 0.211237 2.341805152028776e-38
1.221620 0.742490 0.210660 2.341805152028776e-38
1.224095 0.734565 0.210368 2.341805152028776e-38
1.226509 0.726653 0.210075 2.341805152028776e-38
1.227979 0.718304 0.209648 2.341805152028776e-38
1.261948 0.728763 0.214756 2.341805152028776e-38
1.217690 0.848313 0.211183 2.341805152028776e-38
1.209526 0.832271 0.208953 2.341805152028776e-38
1.208587 0.821362 0.207984 2.341805152028776e-38
1.207517 0.810558 0.207026 2.341805152028776e-38
1.208828 0.801451 0.206487 2.341805152028776e-38
1.211730 0.793442 0.206225 2.341805152028776e-38
1.215413 0.785964 0.206097 2.341805152028776e-38
1.214877 0.775808 0.205259 2.341805152028776e-38
1.215905 0.766793 0.204710 2.341805152028776e-38
1.216852 0.757821 0.204162 2.341805152028776e-38
1.219423 0.749901 0.203890 2.341805152028776e-38
1.221097 0.741464 0.203472 2.341805152028776e-38
1.224414 0.734052 0.203329 2.341805152028776e-38
1.225957 0.725657 0.202909 2.341805152028776e-38
1.226564 0.716812 0.202354 2.341805152028776e-38
1.256266 0.724806 0.206587 2.341805152028776e-38
1.218077 0.847773 0.203895 2.341805152028776e-38
1.210714 0.832291 0.201875 2.341805152028776e-38
1.208946 0.820824 0.200803 2.341805152028776e-38
1.208680 0.810586 0.200015 2.341805152028776e-38
1.210813 0.802019 0.199629 2.341805152028776e-38
1.214547 0.794542 0.199510 2.341805152028776e-38
1.222395 0.789737 0.200067 2.341805152028776e-38
1.222712 0.780074 0.199391 2.341805152028776e-38
1.218718 0.767868 0.198047 2.341805152028776e-38
1.217144 0.757310 0.197108 2.341805152028776e-38
1.221398 0.750426 0.197117 2.341805152028776e-38
1.222226 0.741465 0.196574 2.341805152028776e-38
1.223842 0.733029 0.196163 2.341805152028776e-38
1.225363 0.724659 0.195761 2.341805152028776e-38
1.228528 0.717316 0.195632 2.341805152028776e-38
1.253106 0.722331 0.198903 2.341805152028776e-38
1.248358 0.878807 0.202236 2.341805152028776e-38
1.220050 0.848363 0.196877 2.341805152028776e-38
1.211861 0.832308 0.194796 2.341805152028776e-38
1.210073 0.820855 0.193764 2.341805152028776e-38
1.210626 0.811162 0.193134 2.341805152028776e-38
1.211107 0.801492 0.192498 2.341805152028776e-38
1.215667 0.794555 0.192513 2.341805152028776e-38
1.222685 0.789207 0.192917 2.341805152028776e-38
1.215463 0.774760 0.191084 2.341805152028776e-38
1.217299 0.766299 0.190708 2.341805152028776e-38
1.219079 0.757844 0.190326 2.341805152028776e-38
1.222492 0.750431 0.190201 2.341805152028776e-38
1.223316 0.741464 0.189677 2.341805152028776e-38
1.225780 0.733532 0.189410 2.341805152028776e-38
1.227289 0.725172 0.189026 2.341805152028776e-38
1.229599 0.717320 0.188768 2.341805152028776e-38
1.249900 0.719855 0.191266 2.341805152028776e-38
1.303015 0.740806 0.198753 2.341805152028776e-38
1.239770 0.871987 0.193370 2.341805152028776e-38
1.218724 0.846687 0.189343 2.341805152028776e-38
1.213785 0.832885 0.187842 2.341805152028776e-38
1.213624 0.822553 0.187104 2.341805152028776e-38
1.212534 0.811737 0.186243 2.341805152028776e-38
1.213842 0.802603 0.185755 2.341805152028776e-38
1.215916 0.794024 0.185389 2.341805152028776e-38
1.219599 0.786525 0.185270 2.341805152028776e-38
1.219031 0.776379 0.184520 2.341805152028776e-38
1.220875 0.767898 0.184157 2.341805152028776e-38
1.221819 0.758899 0.183661 2.341805152028776e-38
1.226082 0.751990 0.183666 2.341805152028776e-38
1.226913 0.743003 0.183159 2.341805152028776e-38
1.229370 0.735071 0.182905 2.341805152028776e-38
1.230032 0.726188 0.182407 2.341805152028776e-38
1.233203 0.718820 0.182285 2.341805152028776e-38
1.250947 0.719852 0.184310 2.341805152028776e-38
1.292028 0.733937 0.189750 2.341805152028776e-38
1.227874 0.862882 0.184130 2.341805152028776e-38
1.216536 0.844442 0.181715 2.341805152028776e-38
1.213213 0.831776 0.180513 2.341805152028776e-38
1.213851 0.822023 0.179928 2.341805152028776e-38
1.213578 0.811758 0.179219 2.341805152028776e-38
1.215711 0.803166 0.178871 2.341805152028776e-38
1.216956 0.794034 0.178395 2.341805152028776e-38
1.218969 0.785454 0.178036 2.341805152028776e-38
1.219216 0.775863 0.177440 2.341805152028776e-38
1.221894 0.767911 0.177210 2.341805152028776e-38
1.223679 0.759430 0.176854 2.341805152028776e-38
1.226253 0.751474 0.176614 2.341805152028776e-38
1.227927 0.743000 0.176246 2.341805152028776e-38
1.232075 0.736100 0.176249 2.341805152028776e-38
1.233594 0.727707 0.175891 2.341805152028776e-38
1.236773 0.720319 0.175772 2.341805152028776e-38
1.250234 0.718857 0.177110 2.341805152028776e-38
1.284433 0.729027 0.181368 2.341805152028776e-38
1.224854 0.860052 0.176329 2.341805152028776e-38
1.218383 0.845026 0.174710 2.341805152028776e-38
1.216695 0.833472 0.173788 2.341805152028776e-38
1.216504 0.823160 0.173111 2.341805152028776e-38
1.217884 0.813984 0.172663 2.341805152028776e-38
1.217542 0.803726 0.171976 2.341805152028776e-38
1.218787 0.794585 0.171518 2.341805152028776e-38
1.220802 0.785994 0.171172 2.341805152028776e-38
1.222712 0.777478 0.170836 2.341805152028776e-38
1.225398 0.769506 0.170614 2.341805152028776e-38
1.226345 0.760482 0.170154 2.341805152028776e-38
1.229771 0.753030 0.170039 2.341805152028776e-38
1.231452 0.744537 0.169685 2.341805152028776e-38
1.233891 0.736619 0.169457 2.341805152028776e-38
1.236266 0.728720 0.169229 2.341805152028776e-38
1.239451 0.721318 0.169113 2.341805152028776e-38
1.250341 0.718357 0.170046 2.341805152028776e-38
1.276786 0.724116 0.173081 2.341805152028776e-38
1.226667 0.860644 0.169248 2.341805152028776e-38
1.218556 0.844476 0.167470 2.341805152028776e-38
1.218489 0.834059 0.166812 2.341805152028776e-38
1.219942 0.824852 0.166386 2.341805152028776e-38
1.218024 0.813450 0.165507 2.341805152028776e-38
1.219334 0.804286 0.165072 2.341805152028776e-38
1.220579 0.795134 0.164631 2.341805152028776e-38
1.222591 0.786540 0.164299 2.341805152028776e-38
1.224495 0.778025 0.163978 2.341805152028776e-38
1.226341 0.769515 0.163653 2.341805152028776e-38
1.228975 0.761534 0.163434 2.341805152028776e-38
1.231559 0.753548 0.163211 2.341805152028776e-38
1.232390 0.744531 0.162758 2.341805152028776e-38
1.235669 0.737136 0.162654 2.341805152028776e-38
1.236334 0.728218 0.162210 2.341805152028776e-38
1.238656 0.720317 0.161985 2.341805152028776e-38
1.247822 0.716371 0.162654 2.341805152028776e-38
1.269086 0.719205 0.164891 2.341805152028776e-38
1.230067 0.862376 0.162372 2.341805152028776e-38
1.222773 0.846754 0.160776 2.341805152028776e-38
1.221884 0.835768 0.160041 2.341805152028776e-38
1.220873 0.824872 0.159310 2.341805152028776e-38
1.221431 0.815121 0.158790 2.341805152028776e-38
1.222748 0.805938 0.158372 2.341805152028776e-38
1.223166 0.796225 0.157842 2.341805152028776e-38
1.225172 0.787633 0.157527 2.341805152028776e-38
1.227079 0.779104 0.157218 2.341805152028776e-38
1.230615 0.771636 0.157120 2.341805152028776e-38
1.230724 0.762060 0.156588 2.341805152028776e-38
1.234157 0.754584 0.156480 2.341805152028776e-38
1.234982 0.745566 0.156049 2.341805152028776e-38
1.237411 0.737651 0.155842 2.341805152028776e-38
1.238076 0.728724 0.155415 2.341805152028776e-38
1.238680 0.719814 0.154984 2.341805152028776e-38
1.246985 0.715374 0.155516 2.341805152028776e-38
1.263062 0.715278 0.157012 2.341805152028776e-38
1.233429 0.864106 0.155467 2.341805152028776e-38
1.222865 0.846201 0.153530 2.341805152028776e-38
1.221136 0.834668 0.152727 2.341805152028776e-38
1.222587 0.825448 0.152336 2.341805152028776e-38
1.223973 0.816238 0.151940 2.341805152028776e-38
1.223632 0.805947 0.151335 2.341805152028776e-38
1.224048 0.796229 0.150828 2.341805152028776e-38
1.227715 0.788724 0.150734 2.341805152028776e-38
1.229627 0.780181 0.150438 2.341805152028776e-38
1.231482 0.771643 0.150139 2.341805152028776e-38
1.232433 0.762586 0.149731 2.341805152028776e-38
1.235020 0.754581 0.149525 2.341805152028776e-38
1.236684 0.746090 0.149218 2.341805152028776e-38
1.239115 0.738165 0.149019 2.341805152028776e-38
1.238923 0.728725 0.148508 2.341805152028776e-38
1.241245 0.720810 0.148301 2.341805152028776e-38
1.248695 0.715860 0.148705 2.341805152028776e-38
1.257847 0.711853 0.149316 2.341805152028776e-38
1.236753 0.865834 0.148532 2.341805152028776e-38
1.224550 0.846778 0.146489 2.341805152028776e-38
1.223632 0.835813 0.145823 2.341805152028776e-38
1.225087 0.826578 0.145449 2.341805152028776e-38
1.225649 0.816803 0.144974 2.341805152028776e-38
1.226140 0.807049 0.144494 2.341805152028776e-38
1.226559 0.797317 0.144009 2.341805152028776e-38
1.228546 0.788738 0.143726 2.341805152028776e-38
1.227935 0.778592 0.143149 2.341805152028776e-38
1.229779 0.770064 0.142863 2.341805152028776e-38
1.233259 0.762587 0.142767 2.341805152028776e-38
1.236694 0.755096 0.142668 2.341805152028776e-38
1.239201 0.747126 0.142475 2.341805152028776e-38
1.242491 0.739697 0.142383 2.341805152028776e-38
1.242305 0.730238 0.141895 2.341805152028776e-38
1.244635 0.722304 0.141696 2.341805152028776e-38
1.251232 0.716840 0.141983 2.341805152028776e-38
1.256051 0.710388 0.142078 2.341805152028776e-38
1.244934 0.870986 0.142127 2.341805152028776e-38
1.227015 0.847920 0.139531 2.341805152028776e-38
1.222800 0.834710 0.138526 2.341805152028776e-38
1.225898 0.826593 0.138357 2.341805152028776e-38
1.226457 0.816814 0.137904 2.341805152028776e-38
1.227777 0.807603 0.137539 2.341805152028776e-38
1.229031 0.798405 0.137171 2.341805152028776e-38
1.227661 0.787676 0.136530 2.341805152028776e-38
1.223677 0.775403 0.135609 2.341805152028776e-38
1.227189 0.767956 0.135522 2.341805152028776e-38
1.231504 0.761017 0.135524 2.341805152028776e-38
1.236629 0.754574 0.135615 2.341805152028776e-38
1.239976 0.747133 0.135527 2.341805152028776e-38
1.243266 0.739700 0.135438 2.341805152028776e-38
1.243077 0.730237 0.134973 2.341805152028776e-38
1.245405 0.722299 0.134783 2.341805152028776e-38
1.249412 0.715347 0.134775 2.341805152028776e-38
1.255947 0.709900 0.135054 2.341805152028776e-38
1.252265 0.875565 0.135548 2.341805152028776e-38
1.230256 0.849633 0.132643 2.341805152028776e-38
1.225217 0.835851 0.131602 2.341805152028776e-38
1.226668 0.826608 0.131264 2.341805152028776e-38
1.228054 0.817376 0.130922 2.341805152028776e-38
1.229375 0.808156 0.130575 2.341805152028776e-38
1.231466 0.799491 0.130314 2.341805152028776e-38
1.229250 0.788225 0.129619 2.341805152028776e-38
1.225264 0.775944 0.128744 2.341805152028776e-38
1.232157 0.770600 0.129015 2.341805152028776e-38
1.234792 0.762587 0.128839 2.341805152028776e-38
1.239076 0.755606 0.128836 2.341805152028776e-38
1.243272 0.748681 0.128843 2.341805152028776e-38
1.245713 0.740721 0.128670 2.341805152028776e-38
1.245528 0.731244 0.128228 2.341805152028776e-38
1.247861 0.723292 0.128047 2.341805152028776e-38
1.251009 0.715832 0.127951 2.341805152028776e-38
1.254937 0.708923 0.127952 2.341805152028776e-38
1.266914 0.885281 0.129644 2.341805152028776e-38
1.234274 0.851918 0.125811 2.341805152028776e-38
1.227595 0.836990 0.124658 2.341805152028776e-38
1.228224 0.827177 0.124254 2.341805152028776e-38
1.227123 0.816281 0.123679 2.341805152028776e-38
1.230101 0.808161 0.123518 2.341805152028776e-38
1.231345 0.798963 0.123188 2.341805152028776e-38
1.230801 0.788773 0.122698 2.341805152028776e-38
1.231865 0.779681 0.122371 2.341805152028776e-38
1.234556 0.771659 0.122208 2.341805152028776e-38
1.236347 0.763109 0.121958 2.341805152028776e-38
1.241480 0.756647 0.122040 2.341805152028776e-38
1.244825 0.749200 0.121963 2.341805152028776e-38
1.246411 0.740722 0.121715 2.341805152028776e-38
1.246223 0.731242 0.121296 2.341805152028776e-38
1.249418 0.723785 0.121208 2.341805152028776e-38
1.253431 0.716814 0.121200 2.341805152028776e-38
1.257357 0.709904 0.121203 2.341805152028776e-38
1.243178 0.857597 0.119412 2.341805152028776e-38
1.231582 0.839251 0.117852 2.341805152028776e-38
1.229741 0.827745 0.117234 2.341805152028776e-38
1.231130 0.818496 0.116928 2.341805152028776e-38
1.232453 0.809259 0.116618 2.341805152028776e-38
1.235366 0.801146 0.116466 2.341805152028776e-38
1.236511 0.792008 0.116161 2.341805152028776e-38
1.236748 0.782352 0.115774 2.341805152028776e-38
1.238608 0.773774 0.115541 2.341805152028776e-38
1.240410 0.765201 0.115304 2.341805152028776e-38
1.243844 0.757692 0.115225 2.341805152028776e-38
1.246339 0.749719 0.115073 2.341805152028776e-38
1.248785 0.741741 0.114918 2.341805152028776e-38
1.251180 0.733761 0.114759 2.341805152028776e-38
1.254387 0.726277 0.114675 2.341805152028776e-38
1.256675 0.718302 0.114512 2.341805152028776e-38
1.259742 0.710884 0.114435 2.341805152028776e-38
1.265186 0.872333 0.114103 2.341805152028776e-38
1.236356 0.842071 0.111082 2.341805152028776e-38
1.232873 0.829426 0.110353 2.341805152028776e-38
1.231778 0.818503 0.109842 2.341805152028776e-38
1.234767 0.810357 0.109699 2.341805152028776e-38
1.236004 0.801157 0.109409 2.341805152028776e-38
1.237146 0.792017 0.109122 2.341805152028776e-38
1.238225 0.782889 0.108832 2.341805152028776e-38
1.240932 0.774832 0.108687 2.341805152028776e-38
1.243587 0.766769 0.108538 2.341805152028776e-38
1.246170 0.758736 0.108391 2.341805152028776e-38
1.246961 0.749722 0.108099 2.341805152028776e-38
1.250263 0.742251 0.108027 2.341805152028776e-38
1.252660 0.734262 0.107877 2.341805152028776e-38
1.255870 0.726770 0.107798 2.341805152028776e-38
1.257287 0.718305 0.107572 2.341805152028776e-38
1.260353 0.710884 0.107500 2.341805152028776e-38
1.243568 0.846575 0.104471 2.341805152028776e-38
1.236794 0.831662 0.103512 2.341805152028776e-38
1.236540 0.821269 0.103103 2.341805152028776e-38
1.237876 0.812001 0.102830 2.341805152028776e-38
1.238276 0.802253 0.102490 2.341805152028776e-38
1.240263 0.793637 0.102291 2.341805152028776e-38
1.242193 0.785025 0.102088 2.341805152028776e-38
1.244064 0.776417 0.101883 2.341805152028776e-38
1.245879 0.767814 0.101674 2.341805152028776e-38
1.248459 0.759780 0.101537 2.341805152028776e-38
1.250109 0.751267 0.101334 2.341805152028776e-38
1.253420 0.743778 0.101266 2.341805152028776e-38
1.255824 0.735771 0.101125 2.341805152028776e-38
1.257316 0.727262 0.100912 2.341805152028776e-38
1.258726 0.718803 0.100702 2.341805152028776e-38
1.261794 0.711373 0.100633 2.341805152028776e-38
1.248269 0.849394 0.097590 2.341805152028776e-38
1.238194 0.832227 0.096438 2.341805152028776e-38
1.237940 0.821826 0.096058 2.341805152028776e-38
1.238443 0.812003 0.095738 2.341805152028776e-38
1.239672 0.802805 0.095488 2.341805152028776e-38
1.242502 0.794719 0.095366 2.341805152028776e-38
1.242749 0.785029 0.095048 2.341805152028776e-38
1.244619 0.776418 0.094856 2.341805152028776e-38
1.247282 0.768334 0.094726 2.341805152028776e-38
1.250711 0.760822 0.094665 2.341805152028776e-38
1.252366 0.752297 0.094475 2.341805152028776e-38
1.253965 0.743777 0.094282 2.341805152028776e-38
1.254646 0.734759 0.094021 2.341805152028776e-38
1.256995 0.726756 0.093887 2.341805152028776e-38
1.259261 0.718805 0.093757 2.341805152028776e-38
1.262329 0.711373 0.093693 2.341805152028776e-38
1.257060 0.855018 0.090959 2.341805152028776e-38
1.242867 0.835017 0.089594 2.341805152028776e-38
1.240964 0.823486 0.089122 2.341805152028776e-38
1.241474 0.813646 0.088826 2.341805152028776e-38
1.242705 0.804440 0.088595 2.341805152028776e-38
1.243861 0.795263 0.088363 2.341805152028776e-38
1.244953 0.786098 0.088128 2.341805152028776e-38
1.248523 0.778531 0.088069 2.341805152028776e-38
1.250347 0.769902 0.087888 2.341805152028776e-38
1.252925 0.761864 0.087772 2.341805152028776e-38
1.254584 0.753327 0.087596 2.341805152028776e-38
1.255329 0.744286 0.087357 2.341805152028776e-38
1.256013 0.735260 0.087116 2.341805152028776e-38
1.258363 0.727249 0.086992 2.341805152028776e-38
1.259758 0.718806 0.086812 2.341805152028776e-38
1.263695 0.711861 0.086812 2.341805152028776e-38
1.264990 0.860080 0.084178 2.341805152028776e-38
1.248332 0.838364 0.082757 2.341805152028776e-38
1.243117 0.824594 0.082102 2.341805152028776e-38
1.242797 0.814195 0.081775 2.341805152028776e-38
1.243185 0.804448 0.081508 2.341805152028776e-38
1.246023 0.796343 0.081404 2.341805152028776e-38
1.247120 0.787166 0.081188 2.341805152028776e-38
1.249848 0.779059 0.081078 2.341805152028776e-38
1.250823 0.769899 0.080857 2.341805152028776e-38
1.253394 0.761868 0.080751 2.341805152028776e-38
1.255053 0.753328 0.080589 2.341805152028776e-38
1.256656 0.744794 0.080424 2.341805152028776e-38
1.257341 0.735761 0.080201 2.341805152028776e-38
1.258828 0.727243 0.080032 2.341805152028776e-38
1.261084 0.719302 0.079922 2.341805152028776e-38
1.264154 0.711860 0.079867 2.341805152028776e-38
1.304707 0.725267 0.082173 2.341805152028776e-38
1.269580 0.862896 0.077110 2.341805152028776e-38
1.250443 0.839483 0.075662 2.341805152028776e-38
1.246063 0.826253 0.075114 2.341805152028776e-38
1.245749 0.815839 0.074815 2.341805152028776e-38
1.246979 0.806625 0.074622 2.341805152028776e-38
1.247304 0.796885 0.074376 2.341805152028776e-38
1.247558 0.787168 0.074128 2.341805152028776e-38
1.251133 0.779586 0.074078 2.341805152028776e-38
1.252110 0.770419 0.073876 2.341805152028776e-38
1.255532 0.762909 0.073830 2.341805152028776e-38
1.257196 0.754357 0.073681 2.341805152028776e-38
1.259662 0.746320 0.073581 2.341805152028776e-38
1.260354 0.737270 0.073378 2.341805152028776e-38
1.261850 0.728735 0.073222 2.341805152028776e-38
1.264108 0.720787 0.073123 2.341805152028776e-38
1.266315 0.712838 0.073022 2.341805152028776e-38
1.299029 0.721867 0.074676 2.341805152028776e-38
1.380916 0.757454 0.079137 2.341805152028776e-38
1.280742 0.870202 0.070357 2.341805152028776e-38
1.258320 0.844499 0.068865 2.341805152028776e-38
1.250635 0.829016 0.068187 2.341805152028776e-38
1.247823 0.816941 0.067781 2.341805152028776e-38
1.247380 0.806631 0.067515 2.341805152028776e-38
1.247703 0.796889 0.067293 2.341805152028776e-38
1.249646 0.788235 0.067159 2.341805152028776e-38
1.255771 0.782226 0.067250 2.341805152028776e-38
1.259310 0.774611 0.067204 2.341805152028776e-38
1.257631 0.763949 0.066890 2.341805152028776e-38
1.258443 0.754872 0.066710 2.341805152028776e-38
1.261772 0.747336 0.066664 2.341805152028776e-38
1.262469 0.738275 0.066480 2.341805152028776e-38
1.263965 0.729734 0.066339 2.341805152028776e-38
1.265359 0.721282 0.066205 2.341805152028776e-38
1.267569 0.713327 0.066113 2.341805152028776e-38
1.295054 0.719437 0.067337 2.341805152028776e-38
1.359433 0.745440 0.070464 2.341805152028776e-38
1.291867 0.877507 0.063479 2.341805152028776e-38
1.266160 0.849513 0.061982 2.341805152028776e-38
1.254335 0.831226 0.061172 2.341805152028776e-38
1.251529 0.819137 0.060809 2.341805152028776e-38
1.251098 0.808806 0.060571 2.341805152028776e-38
1.250590 0.798505 0.060332 2.341805152028776e-38
1.255076 0.791434 0.060334 2.341805152028776e-38
1.267156 0.789092 0.060699 2.341805152028776e-38
1.266474 0.778803 0.060455 2.341805152028776e-38
1.263109 0.767063 0.060093 2.341805152028776e-38
1.263080 0.757442 0.059891 2.341805152028776e-38
1.265563 0.749371 0.059809 2.341805152028776e-38
1.264545 0.739280 0.059563 2.341805152028776e-38
1.266907 0.731235 0.059478 2.341805152028776e-38
1.268309 0.722766 0.059358 2.341805152028776e-38
1.272267 0.715775 0.059357 2.341805152028776e-38
1.291911 0.717493 0.060086 2.341805152028776e-38
1.337896 0.733427 0.062031 2.341805152028776e-38
1.286421 0.873583 0.055761 2.341805152028776e-38
1.259024 0.844507 0.054367 2.341805152028776e-38
1.252998 0.830124 0.053904 2.341805152028776e-38
1.252689 0.819691 0.053692 2.341805152028776e-38
1.252259 0.809353 0.053481 2.341805152028776e-38
1.253437 0.800121 0.053341 2.341805152028776e-38
1.258778 0.793567 0.053379 2.341805152028776e-38
1.265782 0.788035 0.053487 2.341805152028776e-38
1.259129 0.774096 0.053020 2.341805152028776e-38
1.262570 0.766547 0.052987 2.341805152028776e-38
1.265109 0.758470 0.052916 2.341805152028776e-38
1.265877 0.749370 0.052773 2.341805152028776e-38
1.266583 0.740285 0.052627 2.341805152028776e-38
1.268946 0.732236 0.052553 2.341805152028776e-38
1.271221 0.724251 0.052482 2.341805152028776e-38
1.274317 0.716753 0.052445 2.341805152028776e-38
1.286980 0.714579 0.052801 2.341805152028776e-38
1.318061 0.722374 0.053909 2.341805152028776e-38
1.280103 0.869096 0.048078 2.341805152028776e-38
1.261804 0.846180 0.047212 2.341805152028776e-38
1.256619 0.832334 0.046841 2.341805152028776e-38
1.255481 0.821338 0.046626 2.341805152028776e-38
1.255059 0.810984 0.046444 2.341805152028776e-38
1.257088 0.802274 0.046354 2.341805152028776e-38
1.258214 0.793035 0.046231 2.341805152028776e-38
1.259275 0.783809 0.046106 2.341805152028776e-38
1.261108 0.775146 0.046013 2.341805152028776e-38
1.263700 0.767067 0.045953 2.341805152028776e-38
1.266241 0.758984 0.045892 2.341805152028776e-38
1.267872 0.750387 0.045798 2.341805152028776e-38
1.269446 0.741795 0.045703 2.341805152028776e-38
1.273545 0.734735 0.045701 2.341805152028776e-38
1.273228 0.725240 0.045546 2.341805152028776e-38
1.275458 0.717241 0.045484 2.341805152028776e-38
1.287251 0.714576 0.045761 2.341805152028776e-38
1.307819 0.716606 0.046348 2.341805152028776e-38
1.282838 0.870785 0.040760 2.341805152028776e-38
1.263714 0.847296 0.040001 2.341805152028776e-38
1.256866 0.832335 0.039635 2.341805152028776e-38
1.256560 0.821889 0.039479 2.341805152028776e-38
1.256980 0.812072 0.039352 2.341805152028776e-38
1.259015 0.803352 0.039275 2.341805152028776e-38
1.257609 0.792503 0.039092 2.341805152028776e-38
1.260364 0.784336 0.039039 2.341805152028776e-38
1.261344 0.775149 0.038934 2.341805152028776e-38
1.264791 0.767587 0.038910 2.341805152028776e-38
1.267335 0.759498 0.038858 2.341805152028776e-38
1.270688 0.751913 0.038831 2.341805152028776e-38
1.271407 0.742801 0.038724 2.341805152028776e-38
1.272912 0.734236 0.038644 2.341805152028776e-38
1.274328 0.725735 0.038566 2.341805152028776e-38
1.276560 0.717730 0.038512 2.341805152028776e-38
1.285736 0.713603 0.038668 2.341805152028776e-38
1.300164 0.712279 0.038980 2.341805152028776e-38
1.289668 0.875280 0.033521 2.341805152028776e-38
1.265582 0.848412 0.032771 2.341805152028776e-38
1.259573 0.833992 0.032493 2.341805152028776e-38
1.259273 0.823535 0.032366 2.341805152028776e-38
1.258862 0.813160 0.032240 2.341805152028776e-38
1.260060 0.803891 0.032156 2.341805152028776e-38
1.261193 0.794635 0.032070 2.341805152028776e-38
1.263111 0.785920 0.032006 2.341805152028776e-38
1.264949 0.777244 0.031942 2.341805152028776e-38
1.268407 0.769663 0.031922 2.341805152028776e-38
1.270962 0.761553 0.031879 2.341805152028776e-38
1.273466 0.753439 0.031835 2.341805152028776e-38
1.273330 0.743808 0.031726 2.341805152028776e-38
1.274837 0.735236 0.031661 2.341805152028776e-38
1.277127 0.727219 0.031618 2.341805152028776e-38
1.278496 0.718708 0.031553 2.341805152028776e-38
1.284181 0.712631 0.031594 2.341805152028776e-38
1.293345 0.708434 0.031721 2.341805152028776e-38
1.303903 0.884827 0.026357 2.341805152028776e-38
1.269902 0.851197 0.025572 2.341805152028776e-38
1.260571 0.834545 0.025289 2.341805152028776e-38
1.261109 0.824632 0.025207 2.341805152028776e-38
1.260703 0.814247 0.025109 2.341805152028776e-38
1.262750 0.805505 0.025060 2.341805152028776e-38
1.263046 0.795701 0.024977 2.341805152028776e-38
1.264970 0.786976 0.024927 2.341805152028776e-38
1.266811 0.778293 0.024877 2.341805152028776e-38
1.269420 0.770182 0.024845 2.341805152028776e-38
1.271120 0.761553 0.024795 2.341805152028776e-38
1.273624 0.753438 0.024761 2.341805152028776e-38
1.273487 0.743806 0.024676 2.341805152028776e-38
1.275858 0.735736 0.024642 2.341805152028776e-38
1.277282 0.727219 0.024592 2.341805152028776e-38
1.279522 0.719197 0.024558 2.341805152028776e-38
1.283461 0.712144 0.024557 2.341805152028776e-38
1.291746 0.707470 0.024638 2.341805152028776e-38
1.321408 0.896619 0.019077 2.341805152028776e-38
1.273349 0.853425 0.018314 2.341805152028776e-38
1.261529 0.835097 0.018076 2.341805152028776e-38
1.261231 0.824634 0.018005 2.341805152028776e-38
1.263345 0.815876 0.017971 2.341805152028776e-38
1.265400 0.807119 0.017936 2.341805152028776e-38
1.264859 0.796767 0.017865 2.341805152028776e-38
1.266788 0.788031 0.017829 2.341805152028776e-38
1.268634 0.779341 0.017793 2.341805152028776e-38
1.271248 0.771220 0.017770 2.341805152028776e-38
1.273812 0.763095 0.017746 2.341805152028776e-38
1.275464 0.754455 0.017710 2.341805152028776e-38
1.275332 0.744813 0.017650 2.341805152028776e-38
1.276841 0.736236 0.017613 2.341805152028776e-38
1.279136 0.728208 0.017590 2.341805152028776e-38
1.282253 0.720666 0.017577 2.341805152028776e-38
1.286200 0.713598 0.017576 2.341805152028776e-38
1.290108 0.706508 0.017575 2.341805152028776e-38
1.279248 0.857323 0.011038 2.341805152028776e-38
1.263279 0.836201 0.010860 2.341805152028776e-38
1.262149 0.825183 0.010810 2.341805152028776e-38
1.264266 0.816419 0.010790 2.341805152028776e-38
1.265481 0.807120 0.010762 2.341805152028776e-38
1.265786 0.797300 0.010726 2.341805152028776e-38
1.269416 0.789616 0.010719 2.341805152028776e-38
1.270417 0.780389 0.010690 2.341805152028776e-38
1.273893 0.772777 0.010684 2.341805152028776e-38
1.275607 0.764122 0.010662 2.341805152028776e-38
1.278125 0.755982 0.010648 2.341805152028776e-38
1.278001 0.746325 0.010611 2.341805152028776e-38
1.279517 0.737735 0.010589 2.341805152028776e-38
1.280951 0.729197 0.010568 2.341805152028776e-38
1.284074 0.721646 0.010561 2.341805152028776e-38
1.287152 0.714082 0.010553 2.341805152028776e-38
1.289309 0.706026 0.010538 2.341805152028776e-38
1.289258 0.864004 0.003708 2.341805152028776e-38
1.269158 0.840065 0.003637 2.341805152028776e-38
1.267212 0.828467 0.003618 2.341805152028776e-38
1.267667 0.818589 0.003606 2.341805152028776e-38
1.268051 0.808733 0.003594 2.341805152028776e-38
1.270057 0.799965 0.003587 2.341805152028776e-38
1.272004 0.791200 0.003580 2.341805152028776e-38
1.274718 0.783006 0.003575 2.341805152028776e-38
1.276497 0.774333 0.003568 2.341805152028776e-38
1.278220 0.765664 0.003561 2.341805152028776e-38
1.279886 0.757000 0.003554 2.341805152028776e-38
1.281495 0.748341 0.003547 2.341805152028776e-38
1.282155 0.739234 0.003537 2.341805152028776e-38
1.284466 0.731176 0.003532 2.341805152028776e-38
1.286728 0.723115 0.003527 2.341805152028776e-38
1.289814 0.715537 0.003525 2.341805152028776e-38
1.291101 0.706986 0.003517 2.341805152028776e-38
1.298396 0.870128 -0.003734 2.341805152028776e-38
1.270825 0.841169 -0.003641 2.341805152028776e-38
1.267212 0.828467 -0.003618 2.341805152028776e-38
1.268507 0.819132 -0.003609 2.341805152028776e-38
1.271423 0.810884 -0.003604 2.341805152028776e-38
1.272595 0.801564 -0.003594 2.341805152028776e-38
1.274551 0.792784 -0.003587 2.341805152028776e-38
1.277274 0.784576 -0.003583 2.341805152028776e-38
1.279062 0.775889 -0.003576 2.341805152028776e-38
1.279936 0.766692 -0.003566 2.341805152028776e-38
1.283329 0.759036 -0.003564 2.341805152028776e-38
1.284085 0.749854 -0.003554 2.341805152028776e-38
1.286487 0.741731 -0.003549 2.341805152028776e-38
1.286204 0.732165 -0.003537 2.341805152028776e-38
1.288471 0.724095 -0.003532 2.341805152028776e-38
1.289814 0.715537 -0.003525 2.341805152028776e-38
1.291979 0.707466 -0.003520 2.341805152028776e-38
1.316628 0.882375 -0.011361 2.341805152028776e-38
1.275787 0.844481 -0.010967 2.341805152028776e-38
1.270519 0.830655 -0.010882 2.341805152028776e-38
1.271826 0.821301 -0.010854 2.341805152028776e-38
1.274755 0.813035 -0.010840 2.341805152028776e-38
1.275093 0.803163 -0.010805 2.341805152028776e-38
1.275360 0.793313 -0.010769 2.341805152028776e-38
1.277234 0.784576 -0.010748 2.341805152028776e-38
1.281587 0.777444 -0.010748 2.341805152028776e-38
1.284185 0.769261 -0.010734 2.341805152028776e-38
1.285871 0.760564 -0.010712 2.341805152028776e-38
1.286636 0.751368 -0.010683 2.341805152028776e-38
1.288180 0.742730 -0.010661 2.341805152028776e-38
1.288772 0.733649 -0.010633 2.341805152028776e-38
1.291919 0.726055 -0.010625 2.341805152028776e-38
1.291524 0.716507 -0.010589 2.341805152028776e-38
1.293694 0.708427 -0.010574 2.341805152028776e-38
1.281540 0.848344 -0.018362 2.341805152028776e-38
1.272948 0.832295 -0.018172 2.341805152028776e-38
1.273425 0.822385 -0.018114 2.341805152028776e-38
1.275517 0.813572 -0.018079 2.341805152028776e-38
1.275012 0.803163 -0.018008 2.341805152028776e-38
1.275279 0.793313 -0.017948 2.341805152028776e-38
1.276302 0.784052 -0.017901 2.341805152028776e-38
1.278088 0.775369 -0.017866 2.341805152028776e-38
1.281532 0.767719 -0.017854 2.341805152028776e-38
1.286652 0.761073 -0.017866 2.341805152028776e-38
1.286557 0.751369 -0.017805 2.341805152028776e-38
1.289834 0.743729 -0.017793 2.341805152028776e-38
1.290432 0.734639 -0.017745 2.341805152028776e-38
1.293585 0.727035 -0.017733 2.341805152028776e-38
1.294069 0.717964 -0.017684 2.341805152028776e-38
1.295370 0.709389 -0.017646 2.341805152028776e-38
1.348492 0.728918 -0.018315 2.341805152028776e-38
2.198480 1.547703 -0.044954 2.341805152028776e-38
1.290585 0.854415 -0.025891 2.341805152028776e-38
1.277846 0.835576 -0.025542 2.341805152028776e-38
1.275822 0.824011 -0.025410 2.341805152028776e-38
1.277923 0.815184 -0.025361 2.341805152028776e-38
1.278274 0.805294 -0.025278 2.341805152028776e-38
1.277704 0.794898 -0.025178 2.341805152028776e-38
1.275330 0.783527 -0.025044 2.341805152028776e-38
1.278823 0.775887 -0.025029 2.341805152028776e-38
1.283128 0.768747 -0.025029 2.341805152028776e-38
1.286532 0.761074 -0.025012 2.341805152028776e-38
1.288164 0.752378 -0.024960 2.341805152028776e-38
1.291449 0.744727 -0.024943 2.341805152028776e-38
1.292922 0.736123 -0.024893 2.341805152028776e-38
1.295211 0.728016 -0.024859 2.341805152028776e-38
1.296575 0.719420 -0.024808 2.341805152028776e-38
1.297885 0.710832 -0.024755 2.341805152028776e-38
1.341336 0.725114 -0.025507 2.341805152028776e-38
2.153222 1.516043 -0.056616 2.341805152028776e-38
1.302086 0.862141 -0.033590 2.341805152028776e-38
1.282701 0.838856 -0.032968 2.341805152028776e-38
1.280697 0.827264 -0.032799 2.341805152028776e-38
1.281131 0.817334 -0.032693 2.341805152028776e-38
1.280648 0.806893 -0.032565 2.341805152028776e-38
1.280088 0.796483 -0.032436 2.341805152028776e-38
1.278578 0.785619 -0.032286 2.341805152028776e-38
1.282082 0.777961 -0.032266 2.341805152028776e-38
1.286399 0.770803 -0.032266 2.341805152028776e-38
1.288954 0.762602 -0.032223 2.341805152028776e-38
1.289732 0.753389 -0.032135 2.341805152028776e-38
1.293024 0.745725 -0.032113 2.341805152028776e-38
1.294503 0.737113 -0.032048 2.341805152028776e-38
1.297669 0.729487 -0.032026 2.341805152028776e-38
1.299042 0.720878 -0.031960 2.341805152028776e-38
1.301236 0.712756 -0.031914 2.341805152028776e-38
1.336781 0.722737 -0.032687 2.341805152028776e-38
2.103818 1.481503 -0.067620 2.341805152028776e-38
2.058151 1.431690 -0.065894 2.341805152028776e-38
1.302706 0.862692 -0.041081 2.341805152028776e-38
1.286677 0.841588 -0.040426 2.341805152028776e-38
1.283010 0.828888 -0.040166 2.341805152028776e-38
1.282611 0.818408 -0.040011 2.341805152028776e-38
1.282981 0.808491 -0.039881 2.341805152028776e-38
1.283280 0.798597 -0.039749 2.341805152028776e-38
1.284340 0.789280 -0.039644 2.341805152028776e-38
1.287010 0.781072 -0.039594 2.341805152028776e-38
1.289629 0.772858 -0.039542 2.341805152028776e-38
1.291336 0.764131 -0.039462 2.341805152028776e-38
1.292122 0.754904 -0.039355 2.341805152028776e-38
1.292828 0.745724 -0.039249 2.341805152028776e-38
1.296044 0.738102 -0.039223 2.341805152028776e-38
1.300087 0.730958 -0.039222 2.341805152028776e-38
1.302343 0.722821 -0.039168 2.341805152028776e-38
1.304548 0.714681 -0.039112 2.341805152028776e-38
1.329549 0.718933 -0.039740 2.341805152028776e-38
2.075608 1.461928 -0.078859 2.341805152028776e-38
1.301617 0.862139 -0.048519 2.341805152028776e-38
1.287265 0.842131 -0.047807 2.341805152028776e-38
1.285281 0.830513 -0.047562 2.341805152028776e-38
1.284893 0.820019 -0.047379 2.341805152028776e-38
1.285272 0.810089 -0.047225 2.341805152028776e-38
1.287278 0.801238 -0.047132 2.341805152028776e-38
1.287505 0.791371 -0.046976 2.341805152028776e-38
1.289333 0.782626 -0.046885 2.341805152028776e-38
1.291103 0.773886 -0.046793 2.341805152028776e-38
1.292816 0.765150 -0.046699 2.341805152028776e-38
1.292746 0.755411 -0.046542 2.341805152028776e-38
1.294324 0.746722 -0.046447 2.341805152028776e-38
1.296677 0.738597 -0.046385 2.341805152028776e-38
1.298980 0.730469 -0.046322 2.341805152028776e-38
1.301234 0.722338 -0.046258 2.341805152028776e-38
1.304313 0.714685 -0.046223 2.341805152028776e-38
1.322280 0.715129 -0.046717 2.341805152028776e-38
2.015478 1.419904 -0.088376 2.341805152028776e-38
1.959648 1.363736 -0.085590 2.341805152028776e-38
1.305484 0.864897 -0.056162 2.341805152028776e-38
1.290319 0.844314 -0.055304 2.341805152028776e-38
1.287510 0.832136 -0.054987 2.341805152028776e-38
1.288816 0.822705 -0.054847 2.341805152028776e-38
1.288367 0.812221 -0.054634 2.341805152028776e-38
1.288688 0.802295 -0.054454 2.341805152028776e-38
1.290628 0.793462 -0.054347 2.341805152028776e-38
1.290760 0.783662 -0.054170 2.341805152028776e-38
1.291679 0.774400 -0.054028 2.341805152028776e-38
1.295116 0.766679 -0.053991 2.341805152028776e-38
1.296781 0.757935 -0.053882 2.341805152028776e-38
1.299242 0.749717 -0.053807 2.341805152028776e-38
1.299875 0.740576 -0.053665 2.341805152028776e-38
1.303061 0.732920 -0.053628 2.341805152028776e-38
1.305328 0.724767 -0.053554 2.341805152028776e-38
1.307545 0.716611 -0.053478 2.341805152028776e-38
1.321127 0.714654 -0.053868 2.341805152028776e-38
1.999414 1.408960 -0.099387 2.341805152028776e-38
1.966507 1.368859 -0.097367 2.341805152028776e-38
1.311805 0.869310 -0.063975 2.341805152028776e-38
1.291658 0.845402 -0.062759 2.341805152028776e-38
1.288857 0.833216 -0.062399 2.341805152028776e-38
1.290171 0.823778 -0.062241 2.341805152028776e-38
1.290573 0.813818 -0.062040 2.341805152028776e-38
1.290057 0.803353 -0.061796 2.341805152028776e-38
1.290305 0.793458 -0.061593 2.341805152028776e-38
1.293000 0.785216 -0.061515 2.341805152028776e-38
1.294786 0.776455 -0.061394 2.341805152028776e-38
1.299093 0.769226 -0.061394 2.341805152028776e-38
1.298185 0.758947 -0.061147 2.341805152028776e-38
1.301522 0.751214 -0.061104 2.341805152028776e-38
1.302165 0.742060 -0.060942 2.341805152028776e-38
1.303617 0.733412 -0.060820 2.341805152028776e-38
1.305887 0.725255 -0.060736 2.341805152028776e-38
1.308983 0.717577 -0.060691 2.341805152028776e-38
1.318179 0.713227 -0.060929 2.341805152028776e-38
1.941650 1.368662 -0.107903 2.341805152028776e-38
1.897053 1.320893 -0.105008 2.341805152028776e-38
1.318079 0.873723 -0.071865 2.341805152028776e-38
1.295462 0.848131 -0.070369 2.341805152028776e-38
1.291001 0.834838 -0.069876 2.341805152028776e-38
1.291482 0.824850 -0.069654 2.341805152028776e-38
1.290203 0.813817 -0.069339 2.341805152028776e-38
1.291383 0.804410 -0.069157 2.341805152028776e-38
1.292494 0.795023 -0.068975 2.341805152028776e-38
1.296052 0.787288 -0.068933 2.341805152028776e-38
1.297850 0.778510 -0.068799 2.341805152028776e-38
1.298731 0.769227 -0.068616 2.341805152028776e-38
1.300412 0.760463 -0.068478 2.341805152028776e-38
1.302896 0.752211 -0.068383 2.341805152028776e-38
1.303545 0.743049 -0.068203 2.341805152028776e-38
1.305004 0.734393 -0.068066 2.341805152028776e-38
1.307280 0.726229 -0.067972 2.341805152028776e-38
1.310381 0.718543 -0.067922 2.341805152028776e-38
1.317828 0.713226 -0.068097 2.341805152028776e-38
1.919771 1.353687 -0.117956 2.341805152028776e-38
1.834136 1.277493 -0.112248 2.341805152028776e-38
1.438673 0.965851 -0.087051 2.341805152028776e-38
1.335959 0.885863 -0.080533 2.341805152028776e-38
1.303399 0.853594 -0.078277 2.341805152028776e-38
1.293102 0.836459 -0.077382 2.341805152028776e-38
1.292752 0.825921 -0.077086 2.341805152028776e-38
1.293169 0.815947 -0.076838 2.341805152028776e-38
1.293516 0.805995 -0.076588 2.341805152028776e-38
1.296343 0.797635 -0.076486 2.341805152028776e-38
1.305036 0.792990 -0.076741 2.341805152028776e-38
1.305154 0.783134 -0.076492 2.341805152028776e-38
1.303484 0.772283 -0.076141 2.341805152028776e-38
1.301734 0.761476 -0.075787 2.341805152028776e-38
1.302499 0.752210 -0.075581 2.341805152028776e-38
1.303150 0.743049 -0.075382 2.341805152028776e-38
1.305480 0.734885 -0.075281 2.341805152028776e-38
1.309505 0.727688 -0.075278 2.341805152028776e-38
1.311739 0.719510 -0.075173 2.341805152028776e-38
1.317436 0.713230 -0.075266 2.341805152028776e-38
1.904370 1.343315 -0.128200 2.341805152028776e-38
1.835098 1.278622 -0.123047 2.341805152028776e-38
1.800431 1.239235 -0.120263 2.341805152028776e-38
1.470479 0.987555 -0.097484 2.341805152028776e-38
1.356279 0.899658 -0.089576 2.341805152028776e-38
1.310449 0.858516 -0.086226 2.341805152028776e-38
1.296836 0.839165 -0.085025 2.341805152028776e-38
1.297344 0.829143 -0.084757 2.341805152028776e-38
1.296093 0.818077 -0.084376 2.341805152028776e-38
1.297300 0.808636 -0.084157 2.341805152028776e-38
1.302693 0.801825 -0.084210 2.341805152028776e-38
1.313120 0.798172 -0.084599 2.341805152028776e-38
1.308988 0.785702 -0.084052 2.341805152028776e-38
1.307334 0.774830 -0.083667 2.341805152028776e-38
1.304739 0.763497 -0.083225 2.341805152028776e-38
1.306380 0.754714 -0.083055 2.341805152028776e-38
1.306185 0.745027 -0.082781 2.341805152028776e-38
1.308526 0.736846 -0.082671 2.341805152028776e-38
1.311689 0.729148 -0.082613 2.341805152028776e-38
1.313056 0.720477 -0.082443 2.341805152028776e-38
1.318758 0.714190 -0.082545 2.341805152028776e-38
1.901149 1.341575 -0.139168 2.341805152028776e-38
1.845821 1.286604 -0.134582 2.341805152028776e-38
1.817802 1.251672 -0.132033 2.341805152028776e-38
1.510498 1.014824 -0.108887 2.341805152028776e-38
1.381529 0.916763 -0.099217 2.341805152028776e-38
1.317449 0.863439 -0.094262 2.341805152028776e-38
1.298849 0.840784 -0.092597 2.341805152028776e-38
1.298527 0.830213 -0.092246 2.341805152028776e-38
1.297284 0.819140 -0.091832 2.341805152028776e-38
1.300192 0.810749 -0.091714 2.341805152028776e-38
1.303897 0.802875 -0.091652 2.341805152028776e-38
1.309217 0.796094 -0.091716 2.341805152028776e-38
1.305932 0.784159 -0.091181 2.341805152028776e-38
1.307706 0.775340 -0.091002 2.341805152028776e-38
1.307700 0.765518 -0.090701 2.341805152028776e-38
1.308490 0.756219 -0.090457 2.341805152028776e-38
1.307443 0.746015 -0.090098 2.341805152028776e-38
1.308921 0.737337 -0.089919 2.341805152028776e-38
1.311214 0.729152 -0.089797 2.341805152028776e-38
1.315208 0.721924 -0.089792 2.341805152028776e-38
1.319162 0.714675 -0.089783 2.341805152028776e-38
1.906834 1.346164 -0.150815 2.341805152028776e-38
1.842555 1.284882 -0.145154 2.341805152028776e-38
1.817839 1.252219 -0.142658 2.341805152028776e-38
1.545465 1.038752 -0.120370 2.341805152028776e-38
1.401724 0.930557 -0.108766 2.341805152028776e-38
1.322730 0.867268 -0.102254 2.341805152028776e-38
1.300818 0.842403 -0.100198 2.341805152028776e-38
1.300508 0.831820 -0.099818 2.341805152028776e-38
1.300963 0.821802 -0.099501 2.341805152028776e-38
1.303040 0.812862 -0.099309 2.341805152028776e-38
1.302509 0.802355 -0.098920 2.341805152028776e-38
1.305275 0.794014 -0.098794 2.341805152028776e-38
1.307114 0.785184 -0.098605 2.341805152028776e-38
1.309754 0.776868 -0.098476 2.341805152028776e-38
1.308897 0.766530 -0.098087 2.341805152028776e-38
1.309693 0.757225 -0.097823 2.341805152028776e-38
1.310394 0.747992 -0.097564 2.341805152028776e-38
1.312753 0.739788 -0.097436 2.341805152028776e-38
1.315061 0.731582 -0.097304 2.341805152028776e-38
1.318193 0.723853 -0.097234 2.341805152028776e-38
1.320402 0.715636 -0.097096 2.341805152028776e-38
1.918967 1.355356 -0.163093 2.341805152028776e-38
1.846594 1.288295 -0.156320 2.341805152028776e-38
1.845744 1.272011 -0.155647 2.341805152028776e-38
1.332968 0.874379 -0.110729 2.341805152028776e-38
1.305255 0.845647 -0.108034 2.341805152028776e-38
1.302444 0.833427 -0.107419 2.341805152028776e-38
1.301224 0.822331 -0.106940 2.341805152028776e-38
1.302459 0.812861 -0.106665 2.341805152028776e-38
1.302780 0.802881 -0.106318 2.341805152028776e-38
1.304704 0.794009 -0.106112 2.341805152028776e-38
1.308254 0.786210 -0.106047 2.341805152028776e-38
1.309184 0.776869 -0.105771 2.341805152028776e-38
1.309191 0.767038 -0.105422 2.341805152028776e-38
1.310855 0.758231 -0.105209 2.341805152028776e-38
1.312436 0.749474 -0.104999 2.341805152028776e-38
1.315673 0.741749 -0.104930 2.341805152028776e-38
1.317120 0.733041 -0.104720 2.341805152028776e-38
1.319386 0.724820 -0.104576 2.341805152028776e-38
1.321602 0.716597 -0.104429 2.341805152028776e-38
1.928579 1.362819 -0.175300 2.341805152028776e-38
1.882457 1.313968 -0.170431 2.341805152028776e-38
1.880128 1.296329 -0.169562 2.341805152028776e-38
1.802607 1.227740 -0.161957 2.341805152028776e-38
1.457700 0.968627 -0.129989 2.341805152028776e-38
1.339818 0.879300 -0.119032 2.341805152028776e-38
1.307135 0.847263 -0.115706 2.341805152028776e-38
1.305177 0.835570 -0.115123 2.341805152028776e-38
1.303971 0.824459 -0.114611 2.341805152028776e-38
1.305220 0.814973 -0.114318 2.341805152028776e-38
1.306403 0.805500 -0.114021 2.341805152028776e-38
1.308351 0.796595 -0.113799 2.341805152028776e-38
1.308497 0.786720 -0.113434 2.341805152028776e-38
1.309432 0.777378 -0.113140 2.341805152028776e-38
1.311164 0.768554 -0.112916 2.341805152028776e-38
1.313701 0.760236 -0.112762 2.341805152028776e-38
1.314436 0.750955 -0.112462 2.341805152028776e-38
1.317681 0.743219 -0.112389 2.341805152028776e-38
1.320009 0.734985 -0.112239 2.341805152028776e-38
1.323161 0.727229 -0.112160 2.341805152028776e-38
1.323637 0.718034 -0.111855 2.341805152028776e-38
1.943812 1.374309 -0.188183 2.341805152028776e-38
1.902690 1.328794 -0.183474 2.341805152028776e-38
1.888975 1.303095 -0.181444 2.341805152028776e-38
1.820599 1.240631 -0.174216 2.341805152028776e-38
1.486820 0.988488 -0.141213 2.341805152028776e-38
1.357448 0.891334 -0.128446 2.341805152028776e-38
1.313152 0.851590 -0.123799 2.341805152028776e-38
1.306185 0.836636 -0.122707 2.341805152028776e-38
1.304989 0.825519 -0.122162 2.341805152028776e-38
1.305399 0.815500 -0.121771 2.341805152028776e-38
1.308284 0.807073 -0.121614 2.341805152028776e-38
1.310250 0.798144 -0.121377 2.341805152028776e-38
1.310407 0.788258 -0.120988 2.341805152028776e-38
1.312209 0.779414 -0.120754 2.341805152028776e-38
1.315673 0.771583 -0.120674 2.341805152028776e-38
1.314777 0.761242 -0.120196 2.341805152028776e-38
1.317259 0.752931 -0.120032 2.341805152028776e-38
1.320515 0.745179 -0.119956 2.341805152028776e-38
1.321113 0.735959 -0.119639 2.341805152028776e-38
1.322523 0.727236 -0.119397 2.341805152028776e-38
1.323878 0.718520 -0.119152 2.341805152028776e-38
1.983367 1.403060 -0.203764 2.341805152028776e-38
1.926919 1.346472 -0.197182 2.341805152028776e-38
1.912510 1.320048 -0.194944 2.341805152028776e-38
1.864034 1.270922 -0.189286 2.341805152028776e-38
1.319120 0.855916 -0.131969 2.341805152028776e-38
1.307988 0.838239 -0.130393 2.341805152028776e-38
1.306804 0.827112 -0.129816 2.341805152028776e-38
1.309761 0.818667 -0.129653 2.341805152028776e-38
1.310121 0.808645 -0.129235 2.341805152028776e-38
1.311255 0.799173 -0.128899 2.341805152028776e-38
1.313981 0.790823 -0.128739 2.341805152028776e-38
1.315799 0.781958 -0.128491 2.341805152028776e-38
1.316699 0.772595 -0.128156 2.341805152028776e-38
1.317536 0.763246 -0.127816 2.341805152028776e-38
1.320038 0.754905 -0.127641 2.341805152028776e-38
1.321570 0.746158 -0.127393 2.341805152028776e-38
1.323046 0.737417 -0.127141 2.341805152028776e-38
1.325339 0.729164 -0.126969 2.341805152028776e-38
1.326705 0.720433 -0.126709 2.341805152028776e-38
1.992725 1.410516 -0.216552 2.341805152028776e-38
1.960032 1.370425 -0.212158 2.341805152028776e-38
1.951526 1.347752 -0.210409 2.341805152028776e-38
1.913115 1.305139 -0.205490 2.341805152028776e-38
1.363468 0.885190 -0.144282 2.341805152028776e-38
1.324840 0.849519 -0.139699 2.341805152028776e-38
1.313624 0.831901 -0.138029 2.341805152028776e-38
1.312387 0.820776 -0.137415 2.341805152028776e-38
1.312761 0.810739 -0.136974 2.341805152028776e-38
1.314764 0.801762 -0.136706 2.341805152028776e-38
1.315803 0.792358 -0.136359 2.341805152028776e-38
1.318487 0.783993 -0.136187 2.341805152028776e-38
1.318542 0.774110 -0.135744 2.341805152028776e-38
1.318527 0.764252 -0.135298 2.341805152028776e-38
1.319308 0.754913 -0.134936 2.341805152028776e-38
1.322584 0.747137 -0.134849 2.341805152028776e-38
1.324936 0.738875 -0.134672 2.341805152028776e-38
1.326365 0.730131 -0.134402 2.341805152028776e-38
1.328613 0.721870 -0.134217 2.341805152028776e-38
2.023938 1.433506 -0.231978 2.341805152028776e-38
1.995483 1.396089 -0.227814 2.341805152028776e-38
1.990418 1.375465 -0.226342 2.341805152028776e-38
1.957137 1.335985 -0.221717 2.341805152028776e-38
1.608754 1.058201 -0.180218 2.341805152028776e-38
1.459475 0.948106 -0.162890 2.341805152028776e-38
1.310301 0.830295 -0.145208 2.341805152028776e-38
1.308214 0.818660 -0.144469 2.341805152028776e-38
1.310897 0.770077 -0.142337 2.341805152028776e-38
