VERSION .7
FIELDS x y z rgb
SIZE 4 4 4 4
TYPE F F F F
COUNT 1 1 1 1
WIDTH 954
HEIGHT 1
VIEWPOINT 0 0 0 1 0 0 0
POINTS 954
DATA ascii
1.130151 -0.833409 0.248322 2.341805152028776e-38
1.124465 -0.839437 0.248093 2.341805152028776e-38
1.117960 -0.844835 0.247683 2.341805152028776e-38
1.112171 -0.850838 0.247455 2.341805152028776e-38
1.103997 -0.855015 0.246704 2.341805152028776e-38
1.098139 -0.860949 0.246468 2.341805152028776e-38
1.091477 -0.866234 0.246051 2.341805152028776e-38
1.084024 -0.870855 0.245453 2.341805152028776e-38
1.078051 -0.876699 0.245207 2.341805152028776e-38
1.072017 -0.882537 0.244963 2.341805152028776e-38
1.065952 -0.888337 0.244712 2.341805152028776e-38
1.062115 -0.896002 0.244974 2.341805152028776e-38
1.059722 -0.904934 0.245577 2.341805152028776e-38
1.060218 -0.916471 0.246872 2.341805152028776e-38
1.693739 -1.129984 0.350344 2.341805152028776e-38
1.327533 -0.908030 0.276696 2.341805152028776e-38
1.217743 -0.843323 0.254791 2.341805152028776e-38
1.173304 -0.822641 0.246445 2.341805152028776e-38
1.156472 -0.820870 0.243857 2.341805152028776e-38
1.146066 -0.823582 0.242632 2.341805152028776e-38
1.138835 -0.828548 0.242086 2.341805152028776e-38
1.131585 -0.833459 0.241533 2.341805152028776e-38
1.125897 -0.839494 0.241312 2.341805152028776e-38
1.118604 -0.844305 0.240746 2.341805152028776e-38
1.112050 -0.849692 0.240351 2.341805152028776e-38
1.106218 -0.855675 0.240130 2.341805152028776e-38
1.098027 -0.859798 0.239395 2.341805152028776e-38
1.089825 -0.863856 0.238653 2.341805152028776e-38
1.083921 -0.869699 0.238412 2.341805152028776e-38
1.076440 -0.874278 0.237831 2.341805152028776e-38
1.070420 -0.880106 0.237595 2.341805152028776e-38
1.063611 -0.885263 0.237184 2.341805152028776e-38
1.059794 -0.892913 0.237441 2.341805152028776e-38
1.054424 -0.899271 0.237354 2.341805152028776e-38
1.048265 -0.904960 0.237093 2.341805152028776e-38
1.616098 -1.076980 0.324505 2.341805152028776e-38
1.295720 -0.885248 0.262155 2.341805152028776e-38
1.211084 -0.837747 0.245977 2.341805152028776e-38
1.174710 -0.822682 0.239515 2.341805152028776e-38
1.159472 -0.822058 0.237331 2.341805152028776e-38
1.148267 -0.824190 0.235971 2.341805152028776e-38
1.140232 -0.828587 0.235278 2.341805152028776e-38
1.132979 -0.833506 0.234742 2.341805152028776e-38
1.128080 -0.840136 0.234694 2.341805152028776e-38
1.121568 -0.845553 0.234310 2.341805152028776e-38
1.115022 -0.850935 0.233922 2.341805152028776e-38
1.105279 -0.853919 0.232887 2.341805152028776e-38
1.098648 -0.859250 0.232503 2.341805152028776e-38
1.091992 -0.864535 0.232112 2.341805152028776e-38
1.086083 -0.870389 0.231880 2.341805152028776e-38
1.079376 -0.875584 0.231476 2.341805152028776e-38
1.073348 -0.881426 0.231249 2.341805152028776e-38
1.065771 -0.885969 0.230686 2.341805152028776e-38
1.059688 -0.891725 0.230446 2.341805152028776e-38
1.052072 -0.896162 0.229870 2.341805152028776e-38
1.044441 -0.900541 0.229289 2.341805152028776e-38
1.543150 -1.027249 0.300549 2.341805152028776e-38
1.390716 -0.937336 0.271868 2.341805152028776e-38
1.268677 -0.865801 0.248964 2.341805152028776e-38
1.203552 -0.831607 0.237097 2.341805152028776e-38
1.172839 -0.820457 0.231944 2.341805152028776e-38
1.157602 -0.819821 0.229824 2.341805152028776e-38
1.147222 -0.822494 0.228660 2.341805152028776e-38
1.139991 -0.827465 0.228149 2.341805152028776e-38
1.135128 -0.834134 0.228110 2.341805152028776e-38
1.129434 -0.840187 0.227905 2.341805152028776e-38
1.122920 -0.845609 0.227533 2.341805152028776e-38
1.113241 -0.848593 0.226517 2.341805152028776e-38
1.100386 -0.849145 0.224872 2.341805152028776e-38
1.095337 -0.855661 0.224821 2.341805152028776e-38
1.090250 -0.862149 0.224763 2.341805152028776e-38
1.085895 -0.869225 0.224857 2.341805152028776e-38
1.080727 -0.875660 0.224786 2.341805152028776e-38
1.074714 -0.881490 0.224562 2.341805152028776e-38
1.066374 -0.885409 0.223858 2.341805152028776e-38
1.057270 -0.888626 0.222989 2.341805152028776e-38
1.050422 -0.893687 0.222591 2.341805152028776e-38
1.042055 -0.897410 0.221869 2.341805152028776e-38
1.480679 -0.984622 0.279478 2.341805152028776e-38
1.334902 -0.898735 0.252891 2.341805152028776e-38
1.243159 -0.847462 0.236416 2.341805152028776e-38
1.196773 -0.826025 0.228475 2.341805152028776e-38
1.172541 -0.819361 0.224719 2.341805152028776e-38
1.158912 -0.819863 0.222975 2.341805152028776e-38
1.149332 -0.823112 0.222001 2.341805152028776e-38
1.143706 -0.829238 0.221813 2.341805152028776e-38
1.137240 -0.834759 0.221467 2.341805152028776e-38
1.133920 -0.842591 0.221734 2.341805152028776e-38
1.125811 -0.846851 0.221065 2.341805152028776e-38
1.112975 -0.847455 0.219460 2.341805152028776e-38
1.104828 -0.851604 0.218791 2.341805152028776e-38
1.099765 -0.858145 0.218743 2.341805152028776e-38
1.093112 -0.863433 0.218378 2.341805152028776e-38
1.087979 -0.869908 0.218317 2.341805152028776e-38
1.082039 -0.875732 0.218094 2.341805152028776e-38
1.074511 -0.880299 0.217564 2.341805152028776e-38
1.066935 -0.884846 0.217038 2.341805152028776e-38
1.060100 -0.889971 0.216660 2.341805152028776e-38
1.053242 -0.895046 0.216275 2.341805152028776e-38
1.044114 -0.898140 0.215421 2.341805152028776e-38
1.433667 -0.952382 0.262009 2.341805152028776e-38
1.296128 -0.871739 0.237747 2.341805152028776e-38
1.222443 -0.832458 0.225085 2.341805152028776e-38
1.189121 -0.819879 0.219797 2.341805152028776e-38
1.170578 -0.817130 0.217212 2.341805152028776e-38
1.159374 -0.819331 0.215974 2.341805152028776e-38
1.151400 -0.823732 0.215332 2.341805152028776e-38
1.145785 -0.829849 0.215146 2.341805152028776e-38
1.140908 -0.836550 0.215113 2.341805152028776e-38
1.134404 -0.842045 0.214773 2.341805152028776e-38
1.125504 -0.845713 0.213976 2.341805152028776e-38
1.116600 -0.849307 0.213173 2.341805152028776e-38
1.108454 -0.853457 0.212521 2.341805152028776e-38
1.101820 -0.858803 0.212175 2.341805152028776e-38
1.095938 -0.864715 0.211973 2.341805152028776e-38
1.089252 -0.869971 0.211615 2.341805152028776e-38
1.081773 -0.874558 0.211100 2.341805152028776e-38
1.074265 -0.879105 0.210584 2.341805152028776e-38
1.068977 -0.885541 0.210525 2.341805152028776e-38
1.062136 -0.890676 0.210160 2.341805152028776e-38
1.055272 -0.895763 0.209788 2.341805152028776e-38
1.042385 -0.895645 0.208213 2.341805152028776e-38
2.438077 -1.519800 0.423323 2.341805152028776e-38
1.276114 -0.857428 0.226420 2.341805152028776e-38
1.213090 -0.825242 0.216050 2.341805152028776e-38
1.187113 -0.817658 0.212243 2.341805152028776e-38
1.172626 -0.817726 0.210469 2.341805152028776e-38
1.164644 -0.822220 0.209855 2.341805152028776e-38
1.155040 -0.825499 0.208944 2.341805152028776e-38
1.149429 -0.831618 0.208760 2.341805152028776e-38
1.142945 -0.837170 0.208438 2.341805152028776e-38
1.135642 -0.842087 0.207965 2.341805152028776e-38
1.126737 -0.845760 0.207194 2.341805152028776e-38
1.119404 -0.850557 0.206709 2.341805152028776e-38
1.111261 -0.854705 0.206075 2.341805152028776e-38
1.105399 -0.860674 0.205887 2.341805152028776e-38
1.099505 -0.866606 0.205692 2.341805152028776e-38
1.092032 -0.871265 0.205201 2.341805152028776e-38
1.084543 -0.875867 0.204705 2.341805152028776e-38
1.078570 -0.881665 0.204493 2.341805152028776e-38
1.071743 -0.886863 0.204146 2.341805152028776e-38
1.064134 -0.891378 0.203648 2.341805152028776e-38
1.056509 -0.895835 0.203145 2.341805152028776e-38
1.044364 -0.896368 0.201765 2.341805152028776e-38
2.316053 -1.442372 0.388584 2.341805152028776e-38
2.374030 -1.497148 0.399691 2.341805152028776e-38
1.265879 -0.849734 0.217032 2.341805152028776e-38
1.206949 -0.820249 0.207703 2.341805152028776e-38
1.185058 -0.815435 0.204726 2.341805152028776e-38
1.173011 -0.817187 0.203435 2.341805152028776e-38
1.164220 -0.821112 0.202701 2.341805152028776e-38
1.156229 -0.825539 0.202103 2.341805152028776e-38
1.150631 -0.831644 0.201922 2.341805152028776e-38
1.143346 -0.836618 0.201471 2.341805152028776e-38
1.136839 -0.842125 0.201155 2.341805152028776e-38
1.127930 -0.845805 0.200412 2.341805152028776e-38
1.121383 -0.851206 0.200084 2.341805152028776e-38
1.114026 -0.855957 0.199611 2.341805152028776e-38
1.108161 -0.861934 0.199428 2.341805152028776e-38
1.101481 -0.867269 0.199101 2.341805152028776e-38
1.093228 -0.871321 0.198486 2.341805152028776e-38
1.086507 -0.876551 0.198147 2.341805152028776e-38
1.078995 -0.881106 0.197663 2.341805152028776e-38
1.071421 -0.885659 0.197184 2.341805152028776e-38
1.064575 -0.890806 0.196845 2.341805152028776e-38
1.057706 -0.895905 0.196500 2.341805152028776e-38
1.044802 -0.895798 0.195026 2.341805152028776e-38
2.284563 -1.421461 0.369969 2.341805152028776e-38
2.300811 -1.449654 0.373893 2.341805152028776e-38
1.270389 -0.851970 0.210226 2.341805152028776e-38
1.206487 -0.819155 0.200394 2.341805152028776e-38
1.186222 -0.815454 0.197791 2.341805152028776e-38
1.174168 -0.817212 0.196545 2.341805152028776e-38
1.166992 -0.822284 0.196110 2.341805152028776e-38
1.158991 -0.826726 0.195533 2.341805152028776e-38
1.152584 -0.832264 0.195222 2.341805152028776e-38
1.146105 -0.837817 0.194921 2.341805152028776e-38
1.139589 -0.843340 0.194617 2.341805152028776e-38
1.132255 -0.848222 0.194171 2.341805152028776e-38
1.124113 -0.852450 0.193584 2.341805152028776e-38
1.117532 -0.857820 0.193264 2.341805152028776e-38
1.110887 -0.863192 0.192949 2.341805152028776e-38
1.102640 -0.867316 0.192362 2.341805152028776e-38
1.095159 -0.871991 0.191905 2.341805152028776e-38
1.087660 -0.876610 0.191443 2.341805152028776e-38
1.081681 -0.882423 0.191248 2.341805152028776e-38
1.074874 -0.887606 0.190919 2.341805152028776e-38
1.068775 -0.893408 0.190728 2.341805152028776e-38
1.060377 -0.897250 0.190124 2.341805152028776e-38
1.049713 -0.899091 0.189108 2.341805152028776e-38
2.332919 -1.450266 0.364222 2.341805152028776e-38
2.286106 -1.439122 0.358153 2.341805152028776e-38
1.267451 -0.849237 0.202199 2.341805152028776e-38
1.205151 -0.817516 0.192976 2.341805152028776e-38
1.185712 -0.814349 0.190592 2.341805152028776e-38
1.176098 -0.817801 0.189785 2.341805152028776e-38
1.168107 -0.822313 0.189235 2.341805152028776e-38
1.159295 -0.826185 0.188548 2.341805152028776e-38
1.152889 -0.831724 0.188250 2.341805152028776e-38
1.148027 -0.838430 0.188219 2.341805152028776e-38
1.141505 -0.843963 0.187927 2.341805152028776e-38
1.134165 -0.848855 0.187498 2.341805152028776e-38
1.125226 -0.852495 0.186802 2.341805152028776e-38
1.117070 -0.856663 0.186231 2.341805152028776e-38
1.110444 -0.862015 0.185925 2.341805152028776e-38
1.103760 -0.867361 0.185622 2.341805152028776e-38
1.096275 -0.872042 0.185183 2.341805152028776e-38
1.089547 -0.877287 0.184869 2.341805152028776e-38
1.082794 -0.882484 0.184550 2.341805152028776e-38
1.076763 -0.888288 0.184362 2.341805152028776e-38
1.069898 -0.893465 0.184047 2.341805152028776e-38
1.062253 -0.897953 0.183596 2.341805152028776e-38
1.054593 -0.902382 0.183140 2.341805152028776e-38
2.402348 -1.492153 0.361115 2.341805152028776e-38
1.268585 -0.849261 0.194852 2.341805152028776e-38
1.206234 -0.817544 0.185965 2.341805152028776e-38
1.186794 -0.814364 0.183665 2.341805152028776e-38
1.176361 -0.817256 0.182762 2.341805152028776e-38
1.168370 -0.821768 0.182233 2.341805152028776e-38
1.160365 -0.826216 0.181699 2.341805152028776e-38
1.153958 -0.831761 0.181413 2.341805152028776e-38
1.149910 -0.839040 0.181507 2.341805152028776e-38
1.141788 -0.843404 0.180973 2.341805152028776e-38
1.131270 -0.845922 0.180056 2.341805152028776e-38
1.123136 -0.850142 0.179512 2.341805152028776e-38
1.118928 -0.857314 0.179595 2.341805152028776e-38
1.113093 -0.863268 0.179424 2.341805152028776e-38
1.107180 -0.869241 0.179260 2.341805152028776e-38
1.098129 -0.872706 0.178585 2.341805152028776e-38
1.090622 -0.877340 0.178157 2.341805152028776e-38
1.085406 -0.883795 0.178103 2.341805152028776e-38
1.077848 -0.888337 0.177667 2.341805152028776e-38
1.070981 -0.893519 0.177365 2.341805152028776e-38
1.064849 -0.899292 0.177184 2.341805152028776e-38
1.062457 -0.908248 0.177628 2.341805152028776e-38
2.408564 -1.494784 0.348100 2.341805152028776e-38
2.356391 -1.480895 0.341745 2.341805152028776e-38
1.264728 -0.845972 0.186773 2.341805152028776e-38
1.206454 -0.817014 0.178831 2.341805152028776e-38
1.187836 -0.814378 0.176737 2.341805152028776e-38
1.177399 -0.817275 0.175869 2.341805152028776e-38
1.167780 -0.820651 0.175118 2.341805152028776e-38
1.160588 -0.825670 0.174727 2.341805152028776e-38
1.154988 -0.831795 0.174574 2.341805152028776e-38
1.148546 -0.837309 0.174297 2.341805152028776e-38
1.138035 -0.839897 0.173420 2.341805152028776e-38
1.130714 -0.844768 0.173025 2.341805152028776e-38
1.128917 -0.853774 0.173476 2.341805152028776e-38
1.123900 -0.860375 0.173435 2.341805152028776e-38
1.116489 -0.865126 0.173025 2.341805152028776e-38
1.107441 -0.868668 0.172382 2.341805152028776e-38
1.099167 -0.872751 0.171854 2.341805152028776e-38
1.091657 -0.877390 0.171444 2.341805152028776e-38
1.085671 -0.883224 0.171272 2.341805152028776e-38
1.078888 -0.888388 0.170973 2.341805152028776e-38
1.070499 -0.892299 0.170439 2.341805152028776e-38
1.065891 -0.899348 0.170508 2.341805152028776e-38
1.073314 -0.916690 0.172514 2.341805152028776e-38
2.286421 -1.417858 0.317238 2.341805152028776e-38
2.245582 -1.410145 0.312656 2.341805152028776e-38
1.211569 -0.819821 0.172409 2.341805152028776e-38
1.190477 -0.815512 0.170043 2.341805152028776e-38
1.177580 -0.816726 0.168859 2.341805152028776e-38
1.169585 -0.821244 0.168372 2.341805152028776e-38
1.162388 -0.826273 0.167997 2.341805152028776e-38
1.157590 -0.832988 0.167969 2.341805152028776e-38
1.149542 -0.837336 0.167467 2.341805152028776e-38
1.139830 -0.840513 0.166741 2.341805152028776e-38
1.138870 -0.850146 0.167298 2.341805152028776e-38
1.137043 -0.859199 0.167732 2.341805152028776e-38
1.128839 -0.863434 0.167226 2.341805152028776e-38
1.119054 -0.866387 0.166482 2.341805152028776e-38
1.110005 -0.869930 0.165862 2.341805152028776e-38
1.102499 -0.874645 0.165473 2.341805152028776e-38
1.095750 -0.879924 0.165196 2.341805152028776e-38
1.087436 -0.883902 0.164681 2.341805152028776e-38
1.080648 -0.889075 0.164395 2.341805152028776e-38
1.071501 -0.892347 0.163764 2.341805152028776e-38
1.069171 -0.901322 0.164181 2.341805152028776e-38
2.160632 -1.338834 0.287330 2.341805152028776e-38
2.137049 -1.340974 0.285185 2.341805152028776e-38
1.214180 -0.820956 0.165601 2.341805152028776e-38
1.191430 -0.815536 0.163107 2.341805152028776e-38
1.179353 -0.817308 0.162082 2.341805152028776e-38
1.171353 -0.821835 0.161616 2.341805152028776e-38
1.164150 -0.826874 0.161258 2.341805152028776e-38
1.158541 -0.833018 0.161119 2.341805152028776e-38
1.150491 -0.837371 0.160639 2.341805152028776e-38
1.144786 -0.843485 0.160501 2.341805152028776e-38
1.142218 -0.851958 0.160811 2.341805152028776e-38
1.134833 -0.856839 0.160444 2.341805152028776e-38
1.125851 -0.860456 0.159848 2.341805152028776e-38
1.119223 -0.865823 0.159583 2.341805152028776e-38
1.111750 -0.870578 0.159211 2.341805152028776e-38
1.105016 -0.875919 0.158951 2.341805152028776e-38
1.096709 -0.879969 0.158462 2.341805152028776e-38
1.088392 -0.883951 0.157968 2.341805152028776e-38
1.080834 -0.888498 0.157583 2.341805152028776e-38
1.071698 -0.891757 0.156976 2.341805152028776e-38
1.073935 -0.904573 0.158048 2.341805152028776e-38
2.115729 -1.310053 0.269189 2.341805152028776e-38
2.092298 -1.311939 0.267137 2.341805152028776e-38
2.057163 -1.306145 0.263572 2.341805152028776e-38
1.216754 -0.822089 0.158773 2.341805152028776e-38
1.193983 -0.816684 0.156386 2.341805152028776e-38
1.181905 -0.818453 0.155403 2.341805152028776e-38
1.173896 -0.822995 0.154957 2.341805152028776e-38
1.165873 -0.827473 0.154507 2.341805152028776e-38
1.160261 -0.833626 0.154375 2.341805152028776e-38
1.154616 -0.839743 0.154238 2.341805152028776e-38
1.149708 -0.846455 0.154212 2.341805152028776e-38
1.141545 -0.850798 0.153759 2.341805152028776e-38
1.134165 -0.855673 0.153408 2.341805152028776e-38
1.126767 -0.860493 0.153052 2.341805152028776e-38
1.120137 -0.865864 0.152800 2.341805152028776e-38
1.113456 -0.871223 0.152549 2.341805152028776e-38
1.105938 -0.875956 0.152193 2.341805152028776e-38
1.097627 -0.880010 0.151726 2.341805152028776e-38
1.090080 -0.884624 0.151362 2.341805152028776e-38
1.083284 -0.889811 0.151100 2.341805152028776e-38
1.073384 -0.892435 0.150410 2.341805152028776e-38
1.080948 -0.909743 0.152187 2.341805152028776e-38
2.099451 -1.299065 0.255068 2.341805152028776e-38
2.072699 -1.298747 0.252697 2.341805152028776e-38
2.047698 -1.299236 0.250525 2.341805152028776e-38
1.271972 -0.848248 0.157899 2.341805152028776e-38
1.215167 -0.820438 0.151411 2.341805152028776e-38
1.194036 -0.816145 0.149337 2.341805152028776e-38
1.181966 -0.817900 0.148395 2.341805152028776e-38
1.173957 -0.822441 0.147971 2.341805152028776e-38
1.167558 -0.828070 0.147747 2.341805152028776e-38
1.162750 -0.834812 0.147724 2.341805152028776e-38
1.157902 -0.841528 0.147697 2.341805152028776e-38
1.148988 -0.845297 0.147157 2.341805152028776e-38
1.140830 -0.849635 0.146724 2.341805152028776e-38
1.134249 -0.855105 0.146492 2.341805152028776e-38
1.126852 -0.859924 0.146153 2.341805152028776e-38
1.120225 -0.865295 0.145912 2.341805152028776e-38
1.112772 -0.870028 0.145569 2.341805152028776e-38
1.105259 -0.874757 0.145230 2.341805152028776e-38
1.097730 -0.879428 0.144887 2.341805152028776e-38
1.090184 -0.884041 0.144539 2.341805152028776e-38
1.083391 -0.889228 0.144290 2.341805152028776e-38
1.073500 -0.891840 0.143630 2.341805152028776e-38
1.087169 -0.914270 0.146147 2.341805152028776e-38
2.082235 -1.287553 0.241049 2.341805152028776e-38
2.063127 -1.291890 0.239672 2.341805152028776e-38
2.036472 -1.291259 0.237406 2.341805152028776e-38
1.262915 -0.841638 0.149382 2.341805152028776e-38
1.214363 -0.819342 0.144176 2.341805152028776e-38
1.196513 -0.817289 0.142591 2.341805152028776e-38
1.184441 -0.819043 0.141691 2.341805152028776e-38
1.176424 -0.823598 0.141287 2.341805152028776e-38
1.169205 -0.828665 0.140976 2.341805152028776e-38
1.164393 -0.835416 0.140955 2.341805152028776e-38
1.157931 -0.840971 0.140734 2.341805152028776e-38
1.151433 -0.846495 0.140511 2.341805152028776e-38
1.144064 -0.851441 0.140197 2.341805152028776e-38
1.136676 -0.856331 0.139879 2.341805152028776e-38
1.129270 -0.861163 0.139556 2.341805152028776e-38
1.122634 -0.866548 0.139327 2.341805152028776e-38
1.116751 -0.872507 0.139194 2.341805152028776e-38
1.108441 -0.876641 0.138773 2.341805152028776e-38
1.100899 -0.881331 0.138447 2.341805152028776e-38
1.094113 -0.886589 0.138213 2.341805152028776e-38
1.085764 -0.890535 0.137781 2.341805152028776e-38
1.073575 -0.891241 0.136857 2.341805152028776e-38
1.098691 -0.923276 0.140722 2.341805152028776e-38
2.090338 -1.291740 0.230036 2.341805152028776e-38
2.064447 -1.291898 0.227982 2.341805152028776e-38
2.030210 -1.286477 0.224989 2.341805152028776e-38
1.252147 -0.833923 0.140792 2.341805152028776e-38
1.211864 -0.817131 0.136773 2.341805152028776e-38
1.196485 -0.816747 0.135545 2.341805152028776e-38
1.184422 -0.818487 0.134688 2.341805152028776e-38
1.175589 -0.822471 0.134211 2.341805152028776e-38
1.168375 -0.827532 0.133916 2.341805152028776e-38
1.163570 -0.834279 0.133897 2.341805152028776e-38
1.158726 -0.840998 0.133873 2.341805152028776e-38
1.151433 -0.845923 0.133567 2.341805152028776e-38
1.144065 -0.850869 0.133269 2.341805152028776e-38
1.138270 -0.856955 0.133152 2.341805152028776e-38
1.131651 -0.862400 0.132939 2.341805152028776e-38
1.124218 -0.867190 0.132629 2.341805152028776e-38
1.115984 -0.871310 0.132222 2.341805152028776e-38
1.108462 -0.876054 0.131916 2.341805152028776e-38
1.100921 -0.880743 0.131605 2.341805152028776e-38
1.093364 -0.885374 0.131291 2.341805152028776e-38
1.086560 -0.890578 0.131066 2.341805152028776e-38
1.075136 -0.891918 0.130280 2.341805152028776e-38
1.103327 -0.926518 0.134328 2.341805152028776e-38
2.159403 -1.333611 0.225313 2.341805152028776e-38
2.086813 -1.305108 0.218502 2.341805152028776e-38
1.308448 -0.860136 0.138974 2.341805152028776e-38
1.240492 -0.825655 0.132248 2.341805152028776e-38
1.211800 -0.816588 0.129673 2.341805152028776e-38
1.198063 -0.817326 0.128685 2.341805152028776e-38
1.185997 -0.819066 0.127871 2.341805152028776e-38
1.177162 -0.823054 0.127418 2.341805152028776e-38
1.169130 -0.827549 0.127051 2.341805152028776e-38
1.165944 -0.835460 0.127210 2.341805152028776e-38
1.159480 -0.841022 0.127012 2.341805152028776e-38
1.152991 -0.846539 0.126809 2.341805152028776e-38
1.145625 -0.851483 0.126526 2.341805152028776e-38
1.139030 -0.856980 0.126328 2.341805152028776e-38
1.133201 -0.863032 0.126214 2.341805152028776e-38
1.125764 -0.867830 0.125920 2.341805152028776e-38
1.116738 -0.871345 0.125447 2.341805152028776e-38
1.110005 -0.876700 0.125243 2.341805152028776e-38
1.102459 -0.881397 0.124949 2.341805152028776e-38
1.097219 -0.887916 0.124916 2.341805152028776e-38
1.088858 -0.891880 0.124527 2.341805152028776e-38
1.075121 -0.891326 0.123517 2.341805152028776e-38
2.246285 -1.386472 0.221582 2.341805152028776e-38
1.275907 -0.838255 0.128118 2.341805152028776e-38
1.236249 -0.822352 0.124599 2.341805152028776e-38
1.215000 -0.818271 0.122916 2.341805152028776e-38
1.198778 -0.817342 0.121732 2.341805152028776e-38
1.186707 -0.819086 0.120962 2.341805152028776e-38
1.177879 -0.823066 0.120533 2.341805152028776e-38
1.171472 -0.828715 0.120353 2.341805152028776e-38
1.166660 -0.835478 0.120336 2.341805152028776e-38
1.160195 -0.841045 0.120149 2.341805152028776e-38
1.154508 -0.847155 0.120042 2.341805152028776e-38
1.146345 -0.851502 0.119689 2.341805152028776e-38
1.140545 -0.857601 0.119586 2.341805152028776e-38
1.133127 -0.862455 0.119312 2.341805152028776e-38
1.125692 -0.867252 0.119035 2.341805152028776e-38
1.116667 -0.870766 0.118587 2.341805152028776e-38
1.109945 -0.876109 0.118393 2.341805152028776e-38
1.102400 -0.880805 0.118116 2.341805152028776e-38
1.095614 -0.886070 0.117918 2.341805152028776e-38
1.088034 -0.890655 0.117634 2.341805152028776e-38
1.076600 -0.892002 0.116929 2.341805152028776e-38
1.269952 -0.833882 0.120166 2.341805152028776e-38
1.243582 -0.826775 0.118111 2.341805152028776e-38
1.222298 -0.822735 0.116525 2.341805152028776e-38
1.201925 -0.819041 0.115014 2.341805152028776e-38
1.187379 -0.819105 0.114053 2.341805152028776e-38
1.181008 -0.824788 0.113883 2.341805152028776e-38
1.174590 -0.830455 0.113714 2.341805152028776e-38
1.169768 -0.837237 0.113699 2.341805152028776e-38
1.163291 -0.842821 0.113523 2.341805152028776e-38
1.157594 -0.848948 0.113422 2.341805152028776e-38
1.148627 -0.852707 0.113009 2.341805152028776e-38
1.142022 -0.858221 0.112834 2.341805152028776e-38
1.134599 -0.863083 0.112576 2.341805152028776e-38
1.128738 -0.869104 0.112472 2.341805152028776e-38
1.120486 -0.873248 0.112129 2.341805152028776e-38
1.112191 -0.877368 0.111788 2.341805152028776e-38
1.104638 -0.882077 0.111527 2.341805152028776e-38
1.097844 -0.887355 0.111341 2.341805152028776e-38
1.091025 -0.892583 0.111152 2.341805152028776e-38
1.081880 -0.895855 0.110724 2.341805152028776e-38
1.261446 -0.827866 0.112069 2.341805152028776e-38
1.234269 -0.820159 0.110065 2.341805152028776e-38
1.210532 -0.814396 0.108353 2.341805152028776e-38
1.197617 -0.815687 0.107601 2.341805152028776e-38
1.188011 -0.819121 0.107142 2.341805152028776e-38
1.182464 -0.825368 0.107056 2.341805152028776e-38
1.176042 -0.831043 0.106898 2.341805152028776e-38
1.169594 -0.836672 0.106736 2.341805152028776e-38
1.163928 -0.842840 0.106645 2.341805152028776e-38
1.158230 -0.848970 0.106551 2.341805152028776e-38
1.150069 -0.853317 0.106236 2.341805152028776e-38
1.142663 -0.858240 0.105998 2.341805152028776e-38
1.135238 -0.863105 0.105756 2.341805152028776e-38
1.127796 -0.867913 0.105511 2.341805152028776e-38
1.121123 -0.873277 0.105337 2.341805152028776e-38
1.112050 -0.876773 0.104942 2.341805152028776e-38
1.103720 -0.880859 0.104623 2.341805152028776e-38
1.098483 -0.887384 0.104597 2.341805152028776e-38
1.093208 -0.893878 0.104567 2.341805152028776e-38
1.094809 -0.906064 0.105198 2.341805152028776e-38
1.312790 -0.850529 0.108658 2.341805152028776e-38
1.242046 -0.814737 0.103176 2.341805152028776e-38
1.222413 -0.811886 0.101925 2.341805152028776e-38
1.210304 -0.813848 0.101294 2.341805152028776e-38
1.200686 -0.817383 0.100869 2.341805152028776e-38
1.191068 -0.820835 0.100440 2.341805152028776e-38
1.183064 -0.825377 0.100150 2.341805152028776e-38
1.177456 -0.831630 0.100072 2.341805152028776e-38
1.171815 -0.837847 0.099990 2.341805152028776e-38
1.164525 -0.842858 0.099767 2.341805152028776e-38
1.158022 -0.848401 0.099610 2.341805152028776e-38
1.150671 -0.853332 0.099384 2.341805152028776e-38
1.143263 -0.858257 0.099161 2.341805152028776e-38
1.135837 -0.863126 0.098935 2.341805152028776e-38
1.128393 -0.867937 0.098707 2.341805152028776e-38
1.120932 -0.872691 0.098475 2.341805152028776e-38
1.112652 -0.876794 0.098174 2.341805152028776e-38
1.106659 -0.882749 0.098083 2.341805152028776e-38
1.100635 -0.888665 0.097990 2.341805152028776e-38
1.096125 -0.895802 0.098031 2.341805152028776e-38
1.115398 -0.922630 0.100211 2.341805152028776e-38
1.294955 -0.838605 0.099746 2.341805152028776e-38
1.238443 -0.812003 0.095738 2.341805152028776e-38
1.218818 -0.809132 0.094574 2.341805152028776e-38
1.208378 -0.812186 0.094116 2.341805152028776e-38
1.199592 -0.816271 0.093784 2.341805152028776e-38
1.190800 -0.820283 0.093450 2.341805152028776e-38
1.185260 -0.826525 0.093373 2.341805152028776e-38
1.179645 -0.832792 0.093300 2.341805152028776e-38
1.171561 -0.837281 0.093031 2.341805152028776e-38
1.165891 -0.843459 0.092953 2.341805152028776e-38
1.160188 -0.849600 0.092871 2.341805152028776e-38
1.153638 -0.855127 0.092725 2.341805152028776e-38
1.144622 -0.858872 0.092389 2.341805152028776e-38
1.137191 -0.863748 0.092179 2.341805152028776e-38
1.132116 -0.870392 0.092159 2.341805152028776e-38
1.123852 -0.874554 0.091879 2.341805152028776e-38
1.114781 -0.878048 0.091534 2.341805152028776e-38
1.107220 -0.882771 0.091321 2.341805152028776e-38
1.099642 -0.887436 0.091106 2.341805152028776e-38
1.099777 -0.898356 0.091531 2.341805152028776e-38
1.289631 -0.834817 0.091940 2.341805152028776e-38
1.237300 -0.810911 0.088527 2.341805152028776e-38
1.219339 -0.809136 0.087569 2.341805152028776e-38
1.208895 -0.812194 0.087145 2.341805152028776e-38
1.200108 -0.816281 0.086838 2.341805152028776e-38
1.192958 -0.821428 0.086648 2.341805152028776e-38
1.189056 -0.828815 0.086696 2.341805152028776e-38
1.182611 -0.834528 0.086569 2.341805152028776e-38
1.175328 -0.839614 0.086380 2.341805152028776e-38
1.172071 -0.847568 0.086487 2.341805152028776e-38
1.166344 -0.853744 0.086411 2.341805152028776e-38
1.157369 -0.857516 0.086096 2.341805152028776e-38
1.148337 -0.861282 0.085785 2.341805152028776e-38
1.142481 -0.867387 0.085710 2.341805152028776e-38
1.137384 -0.874061 0.085692 2.341805152028776e-38
1.126733 -0.876415 0.085254 2.341805152028776e-38
1.116088 -0.878683 0.084815 2.341805152028776e-38
1.110083 -0.884658 0.084737 2.341805152028776e-38
1.102493 -0.889339 0.084538 2.341805152028776e-38
1.106484 -0.903432 0.085229 2.341805152028776e-38
1.277555 -0.826688 0.083761 2.341805152028776e-38
1.236115 -0.809817 0.081335 2.341805152028776e-38
1.219819 -0.809140 0.080564 2.341805152028776e-38
1.208545 -0.811643 0.080119 2.341805152028776e-38
1.200585 -0.816290 0.079892 2.341805152028776e-38
1.193434 -0.821439 0.079718 2.341805152028776e-38
1.189537 -0.828821 0.079761 2.341805152028776e-38
1.183092 -0.834536 0.079645 2.341805152028776e-38
1.176620 -0.840205 0.079526 2.341805152028776e-38
1.171741 -0.846997 0.079514 2.341805152028776e-38
1.161988 -0.850223 0.079171 2.341805152028776e-38
1.154643 -0.855150 0.078990 2.341805152028776e-38
1.148819 -0.861296 0.078924 2.341805152028776e-38
1.142167 -0.866799 0.078800 2.341805152028776e-38
1.134698 -0.871646 0.078619 2.341805152028776e-38
1.123271 -0.873372 0.078162 2.341805152028776e-38
1.121278 -0.882404 0.078360 2.341805152028776e-38
1.114470 -0.887787 0.078234 2.341805152028776e-38
1.101419 -0.888107 0.077667 2.341805152028776e-38
1.109290 -0.905350 0.078578 2.341805152028776e-38
1.499968 -1.269454 0.107740 2.341805152028776e-38
1.347458 -0.860873 0.080348 2.341805152028776e-38
1.271298 -0.822356 0.076077 2.341805152028776e-38
1.236558 -0.809820 0.074263 2.341805152028776e-38
1.221924 -0.810247 0.073659 2.341805152028776e-38
1.209812 -0.812206 0.073203 2.341805152028776e-38
1.201847 -0.816860 0.072996 2.341805152028776e-38
1.194692 -0.822016 0.072837 2.341805152028776e-38
1.191615 -0.829971 0.072926 2.341805152028776e-38
1.184349 -0.835119 0.072770 2.341805152028776e-38
1.177873 -0.840795 0.072661 2.341805152028776e-38
1.170562 -0.845839 0.072500 2.341805152028776e-38
1.163233 -0.850827 0.072338 2.341805152028776e-38
1.155082 -0.855164 0.072122 2.341805152028776e-38
1.149261 -0.861308 0.072062 2.341805152028776e-38
1.142608 -0.866814 0.071949 2.341805152028776e-38
1.133554 -0.870446 0.071684 2.341805152028776e-38
1.131594 -0.879519 0.071867 2.341805152028776e-38
1.128782 -0.887982 0.071999 2.341805152028776e-38
1.118038 -0.890292 0.071633 2.341805152028776e-38
1.099526 -0.886245 0.070765 2.341805152028776e-38
1.110509 -0.906002 0.071796 2.341805152028776e-38
1.321791 -0.844208 0.071289 2.341805152028776e-38
1.263319 -0.816937 0.068378 2.341805152028776e-38
1.234450 -0.808186 0.067055 2.341805152028776e-38
1.221492 -0.809698 0.066599 2.341805152028776e-38
1.209381 -0.811654 0.066186 2.341805152028776e-38
1.203897 -0.817990 0.066135 2.341805152028776e-38
1.196735 -0.823157 0.065991 2.341805152028776e-38
1.191192 -0.829411 0.065936 2.341805152028776e-38
1.184749 -0.835126 0.065840 2.341805152028776e-38
1.179087 -0.841384 0.065787 2.341805152028776e-38
1.172581 -0.847020 0.065687 2.341805152028776e-38
1.165244 -0.852019 0.065540 2.341805152028776e-38
1.157085 -0.856368 0.065345 2.341805152028776e-38
1.149662 -0.861318 0.065199 2.341805152028776e-38
1.142213 -0.866223 0.065052 2.341805152028776e-38
1.135539 -0.871678 0.064949 2.341805152028776e-38
1.131206 -0.878924 0.064979 2.341805152028776e-38
1.124472 -0.884296 0.064871 2.341805152028776e-38
1.104374 -0.879109 0.063996 2.341805152028776e-38
1.092146 -0.879995 0.063574 2.341805152028776e-38
1.109365 -0.904759 0.064870 2.341805152028776e-38
1.302803 -0.831844 0.062850 2.341805152028776e-38
1.259489 -0.814230 0.060978 2.341805152028776e-38
1.234809 -0.808194 0.059997 2.341805152028776e-38
1.222685 -0.810252 0.059629 2.341805152028776e-38
1.213887 -0.814442 0.059423 2.341805152028776e-38
1.206735 -0.819680 0.059296 2.341805152028776e-38
1.198738 -0.824297 0.059127 2.341805152028776e-38
1.192369 -0.829992 0.059037 2.341805152028776e-38
1.185110 -0.835131 0.058910 2.341805152028776e-38
1.181074 -0.842552 0.058944 2.341805152028776e-38
1.174561 -0.848199 0.058855 2.341805152028776e-38
1.168023 -0.853799 0.058764 2.341805152028776e-38
1.159049 -0.857570 0.058549 2.341805152028776e-38
1.151623 -0.862526 0.058418 2.341805152028776e-38
1.144166 -0.867441 0.058287 2.341805152028776e-38
1.138277 -0.873516 0.058234 2.341805152028776e-38
1.129199 -0.877100 0.058018 2.341805152028776e-38
1.117762 -0.878755 0.057679 2.341805152028776e-38
1.112551 -0.885344 0.057666 2.341805152028776e-38
1.104175 -0.889412 0.057490 2.341805152028776e-38
1.119022 -0.912353 0.058528 2.341805152028776e-38
1.287974 -0.822168 0.054811 2.341805152028776e-38
1.251419 -0.808810 0.053446 2.341805152028776e-38
1.232619 -0.806558 0.052831 2.341805152028776e-38
1.223006 -0.810254 0.052614 2.341805152028776e-38
1.213377 -0.813889 0.052396 2.341805152028776e-38
1.207054 -0.819686 0.052320 2.341805152028776e-38
1.199880 -0.824871 0.052207 2.341805152028776e-38
1.192686 -0.830001 0.052092 2.341805152028776e-38
1.187065 -0.836287 0.052051 2.341805152028776e-38
1.180581 -0.841979 0.051974 2.341805152028776e-38
1.175692 -0.848793 0.051967 2.341805152028776e-38
1.167536 -0.853220 0.051815 2.341805152028776e-38
1.159368 -0.857581 0.051662 2.341805152028776e-38
1.151145 -0.861935 0.051510 2.341805152028776e-38
1.144488 -0.867451 0.051430 2.341805152028776e-38
1.137805 -0.872919 0.051348 2.341805152028776e-38
1.128729 -0.876500 0.051158 2.341805152028776e-38
1.121222 -0.881240 0.051037 2.341805152028776e-38
1.120693 -0.891577 0.051240 2.341805152028776e-38
1.102161 -0.887545 0.050620 2.341805152028776e-38
1.113926 -0.907949 0.051393 2.341805152028776e-38
1.284893 -0.820019 0.047379 2.341805152028776e-38
1.250862 -0.808272 0.046289 2.341805152028776e-38
1.234570 -0.807658 0.045850 2.341805152028776e-38
1.224120 -0.810808 0.045630 2.341805152028776e-38
1.214487 -0.814449 0.045441 2.341805152028776e-38
1.208986 -0.820813 0.045407 2.341805152028776e-38
1.203453 -0.827141 0.045371 2.341805152028776e-38
1.196246 -0.832292 0.045271 2.341805152028776e-38
1.188163 -0.836867 0.045142 2.341805152028776e-38
1.183303 -0.843725 0.045138 2.341805152028776e-38
1.175162 -0.848215 0.045007 2.341805152028776e-38
1.167009 -0.852639 0.044876 2.341805152028776e-38
1.158040 -0.856403 0.044712 2.341805152028776e-38
1.152227 -0.862541 0.044673 2.341805152028776e-38
1.145565 -0.868064 0.044604 2.341805152028776e-38
1.140465 -0.874755 0.044595 2.341805152028776e-38
1.131377 -0.878351 0.044430 2.341805152028776e-38
1.123859 -0.883106 0.044326 2.341805152028776e-38
1.116283 -0.887855 0.044223 2.341805152028776e-38
1.107890 -0.891944 0.044088 2.341805152028776e-38
1.104912 -0.900385 0.044170 2.341805152028776e-38
1.281769 -0.817870 0.039985 2.341805152028776e-38
1.249423 -0.807190 0.039115 2.341805152028776e-38
1.235645 -0.808209 0.038822 2.341805152028776e-38
1.226028 -0.811913 0.038663 2.341805152028776e-38
1.217217 -0.816121 0.038529 2.341805152028776e-38
1.211707 -0.822501 0.038500 2.341805152028776e-38
1.203692 -0.827147 0.038391 2.341805152028776e-38
1.197306 -0.832869 0.038333 2.341805152028776e-38
1.188404 -0.836871 0.038197 2.341805152028776e-38
1.182730 -0.843150 0.038167 2.341805152028776e-38
1.174592 -0.847636 0.038057 2.341805152028776e-38
1.168055 -0.853236 0.037998 2.341805152028776e-38
1.161494 -0.858789 0.037938 2.341805152028776e-38
1.154069 -0.863745 0.037853 2.341805152028776e-38
1.146603 -0.868675 0.037768 2.341805152028776e-38
1.139119 -0.873547 0.037682 2.341805152028776e-38
1.130828 -0.877748 0.037569 2.341805152028776e-38
1.123312 -0.882499 0.037481 2.341805152028776e-38
1.117307 -0.888486 0.037446 2.341805152028776e-38
1.108910 -0.892581 0.037332 2.341805152028776e-38
1.111354 -0.905448 0.037585 2.341805152028776e-38
1.357622 -0.855392 0.034523 2.341805152028776e-38
1.277760 -0.815183 0.032607 2.341805152028776e-38
1.249624 -0.807192 0.032003 2.341805152028776e-38
1.236681 -0.808760 0.031785 2.341805152028776e-38
1.227896 -0.813018 0.031676 2.341805152028776e-38
1.218248 -0.816680 0.031546 2.341805152028776e-38
1.211907 -0.822505 0.031500 2.341805152028776e-38
1.206364 -0.828849 0.031475 2.341805152028776e-38
1.199146 -0.834016 0.031406 2.341805152028776e-38
1.191057 -0.838601 0.031317 2.341805152028776e-38
1.184559 -0.844315 0.031271 2.341805152028776e-38
1.177224 -0.849396 0.031202 2.341805152028776e-38
1.171484 -0.855601 0.031176 2.341805152028776e-38
1.164105 -0.860579 0.031105 2.341805152028776e-38
1.156672 -0.865547 0.031036 2.341805152028776e-38
1.148398 -0.869888 0.030945 2.341805152028776e-38
1.140113 -0.874162 0.030853 2.341805152028776e-38
1.131817 -0.878369 0.030760 2.341805152028776e-38
1.125084 -0.883744 0.030709 2.341805152028776e-38
1.121422 -0.891604 0.030745 2.341805152028776e-38
1.114563 -0.896977 0.030695 2.341805152028776e-38
1.141787 -0.930083 0.031588 2.341805152028776e-38
1.645938 -1.390245 0.046170 2.341805152028776e-38
1.330724 -0.838337 0.026316 2.341805152028776e-38
1.271179 -0.810883 0.025227 2.341805152028776e-38
1.248105 -0.806110 0.024858 2.341805152028776e-38
1.234330 -0.807122 0.024672 2.341805152028776e-38
1.226389 -0.811915 0.024603 2.341805152028776e-38
1.219238 -0.817239 0.024552 2.341805152028776e-38
1.212894 -0.823069 0.024517 2.341805152028776e-38
1.206524 -0.828853 0.024481 2.341805152028776e-38
1.200947 -0.835162 0.024461 2.341805152028776e-38
1.192853 -0.839754 0.024391 2.341805152028776e-38
1.183906 -0.843737 0.024305 2.341805152028776e-38
1.176574 -0.848815 0.024252 2.341805152028776e-38
1.170030 -0.854427 0.024215 2.341805152028776e-38
1.162657 -0.859396 0.024160 2.341805152028776e-38
1.156833 -0.865551 0.024139 2.341805152028776e-38
1.148559 -0.869893 0.024068 2.341805152028776e-38
1.141860 -0.875385 0.024030 2.341805152028776e-38
1.132767 -0.878988 0.023941 2.341805152028776e-38
1.125244 -0.883751 0.023885 2.341805152028776e-38
1.127062 -0.895965 0.024030 2.341805152028776e-38
1.136536 -0.914535 0.024341 2.341805152028776e-38
1.675212 -1.414772 0.036544 2.341805152028776e-38
1.314776 -0.828211 0.018570 2.341805152028776e-38
1.266243 -0.807657 0.017948 2.341805152028776e-38
1.247385 -0.805569 0.017744 2.341805152028776e-38
1.236123 -0.808218 0.017647 2.341805152028776e-38
1.228177 -0.813019 0.017598 2.341805152028776e-38
1.221020 -0.818353 0.017561 2.341805152028776e-38
1.214669 -0.824193 0.017536 2.341805152028776e-38
1.209940 -0.831120 0.017534 2.341805152028776e-38
1.210098 -0.841445 0.017603 2.341805152028776e-38
1.201969 -0.846087 0.017554 2.341805152028776e-38
1.188098 -0.846641 0.017421 2.341805152028776e-38
1.177505 -0.849403 0.017335 2.341805152028776e-38
1.171765 -0.855610 0.017320 2.341805152028776e-38
1.165993 -0.861778 0.017305 2.341805152028776e-38
1.160157 -0.867950 0.017290 2.341805152028776e-38
1.151868 -0.872312 0.017239 2.341805152028776e-38
1.144362 -0.877214 0.017200 2.341805152028776e-38
1.136048 -0.881445 0.017149 2.341805152028776e-38
1.126937 -0.884992 0.017085 2.341805152028776e-38
1.135012 -0.902191 0.017283 2.341805152028776e-38
1.181067 -0.950269 0.018066 2.341805152028776e-38
1.604717 -1.338792 0.024885 2.341805152028776e-38
1.699847 -1.435425 0.026484 2.341805152028776e-38
1.368762 -0.851412 0.011558 2.341805152028776e-38
1.297938 -0.817553 0.010998 2.341805152028776e-38
1.262109 -0.804969 0.010733 2.341805152028776e-38
1.249145 -0.806655 0.010661 2.341805152028776e-38
1.235366 -0.807672 0.010581 2.341805152028776e-38
1.228258 -0.813020 0.010559 2.341805152028776e-38
1.221100 -0.818354 0.010537 2.341805152028776e-38
1.217232 -0.825879 0.010543 2.341805152028776e-38
1.214142 -0.833953 0.010556 2.341805152028776e-38
1.210999 -0.842018 0.010569 2.341805152028776e-38
1.195508 -0.841484 0.010475 2.341805152028776e-38
1.187364 -0.846063 0.010445 2.341805152028776e-38
1.179207 -0.850575 0.010415 2.341805152028776e-38
1.173460 -0.856791 0.010406 2.341805152028776e-38
1.166073 -0.861781 0.010383 2.341805152028776e-38
1.157836 -0.866155 0.010352 2.341805152028776e-38
1.151152 -0.871710 0.010336 2.341805152028776e-38
1.143649 -0.876608 0.010313 2.341805152028776e-38
1.135338 -0.880835 0.010282 2.341805152028776e-38
1.124657 -0.883143 0.010229 2.341805152028776e-38
1.144488 -0.909661 0.010456 2.341805152028776e-38
1.537887 -1.267576 0.014242 2.341805152028776e-38
1.646300 -1.373390 0.015317 2.341805152028776e-38
1.707614 -1.441882 0.015962 2.341805152028776e-38
1.334840 -0.830285 0.003757 2.341805152028776e-38
1.288672 -0.811690 0.003640 2.341805152028776e-38
1.262992 -0.805507 0.003580 2.341805152028776e-38
1.248345 -0.806113 0.003551 2.341805152028776e-38
1.238754 -0.809862 0.003537 2.341805152028776e-38
1.231633 -0.815228 0.003529 2.341805152028776e-38
1.225294 -0.821138 0.003524 2.341805152028776e-38
1.219755 -0.827564 0.003522 2.341805152028776e-38
1.212534 -0.832821 0.003514 2.341805152028776e-38
1.205292 -0.838023 0.003506 2.341805152028776e-38
1.195548 -0.841484 0.003492 2.341805152028776e-38
1.189847 -0.847804 0.003489 2.341805152028776e-38
1.181680 -0.852331 0.003479 2.341805152028776e-38
1.173500 -0.856793 0.003469 2.341805152028776e-38
1.165309 -0.861188 0.003459 2.341805152028776e-38
1.159478 -0.867354 0.003456 2.341805152028776e-38
1.151989 -0.872315 0.003448 2.341805152028776e-38
1.145276 -0.877826 0.003442 2.341805152028776e-38
1.137748 -0.882676 0.003435 2.341805152028776e-38
1.126270 -0.884380 0.003415 2.341805152028776e-38
1.161752 -0.923351 0.003538 2.341805152028776e-38
1.444619 -1.176361 0.004439 2.341805152028776e-38
1.554920 -1.281572 0.004800 2.341805152028776e-38
1.644824 -1.372112 0.005101 2.341805152028776e-38
1.713026 -1.446401 0.005337 2.341805152028776e-38
1.317857 -0.819721 -0.003709 2.341805152028776e-38
1.280210 -0.806360 -0.003616 2.341805152028776e-38
1.258777 -0.802818 -0.003568 2.341805152028776e-38
1.247505 -0.805570 -0.003549 2.341805152028776e-38
1.238754 -0.809862 -0.003537 2.341805152028776e-38
1.232467 -0.815780 -0.003532 2.341805152028776e-38
1.225294 -0.821138 -0.003524 2.341805152028776e-38
1.218100 -0.826441 -0.003517 2.341805152028776e-38
1.210061 -0.831123 -0.003507 2.341805152028776e-38
1.204471 -0.837452 -0.003504 2.341805152028776e-38
1.197184 -0.842635 -0.003496 2.341805152028776e-38
1.189847 -0.847804 -0.003489 2.341805152028776e-38
1.181680 -0.852331 -0.003479 2.341805152028776e-38
1.174308 -0.857382 -0.003471 2.341805152028776e-38
1.167722 -0.862971 -0.003466 2.341805152028776e-38
1.160278 -0.867953 -0.003458 2.341805152028776e-38
1.151989 -0.872315 -0.003448 2.341805152028776e-38
1.145276 -0.877826 -0.003442 2.341805152028776e-38
1.137748 -0.882676 -0.003435 2.341805152028776e-38
1.125484 -0.883762 -0.003412 2.341805152028776e-38
1.173494 -0.932684 -0.003574 2.341805152028776e-38
1.467882 -1.195304 -0.004511 2.341805152028776e-38
1.583472 -1.305104 -0.004888 2.341805152028776e-38
1.656343 -1.381720 -0.005137 2.341805152028776e-38
1.711498 -1.445111 -0.005333 2.341805152028776e-38
1.310173 -0.814968 -0.011063 2.341805152028776e-38
1.275939 -0.803696 -0.010812 2.341805152028776e-38
1.257893 -0.802280 -0.010697 2.341805152028776e-38
1.248305 -0.806112 -0.010653 2.341805152028776e-38
1.240388 -0.810956 -0.010624 2.341805152028776e-38
1.233261 -0.816331 -0.010602 2.341805152028776e-38
1.226084 -0.821694 -0.010580 2.341805152028776e-38
1.219715 -0.827563 -0.010565 2.341805152028776e-38
1.211669 -0.832254 -0.010535 2.341805152028776e-38
1.205252 -0.838022 -0.010519 2.341805152028776e-38
1.197961 -0.843210 -0.010496 2.341805152028776e-38
1.191436 -0.848964 -0.010481 2.341805152028776e-38
1.184073 -0.854085 -0.010458 2.341805152028776e-38
1.177498 -0.859740 -0.010442 2.341805152028776e-38
1.169290 -0.864158 -0.010412 2.341805152028776e-38
1.162640 -0.869749 -0.010395 2.341805152028776e-38
1.154341 -0.874125 -0.010365 2.341805152028776e-38
1.146030 -0.878433 -0.010335 2.341805152028776e-38
1.139288 -0.883900 -0.010318 2.341805152028776e-38
1.128590 -0.886231 -0.010265 2.341805152028776e-38
1.508924 -1.228768 -0.013911 2.341805152028776e-38
1.628941 -1.342626 -0.015086 2.341805152028776e-38
1.662425 -1.386842 -0.015467 2.341805152028776e-38
1.709142 -1.443173 -0.015976 2.341805152028776e-38
1.302449 -0.810215 -0.018331 2.341805152028776e-38
1.273319 -0.802097 -0.017984 2.341805152028776e-38
1.257813 -0.802280 -0.017828 2.341805152028776e-38
1.247385 -0.805569 -0.017744 2.341805152028776e-38
1.239471 -0.810407 -0.017694 2.341805152028776e-38
1.233180 -0.816331 -0.017670 2.341805152028776e-38
1.226004 -0.821693 -0.017633 2.341805152028776e-38
1.220461 -0.828123 -0.017620 2.341805152028776e-38
1.210765 -0.831686 -0.017546 2.341805152028776e-38
1.205172 -0.838020 -0.017532 2.341805152028776e-38
1.198698 -0.843785 -0.017506 2.341805152028776e-38
1.191355 -0.848962 -0.017468 2.341805152028776e-38
1.184803 -0.854668 -0.017442 2.341805152028776e-38
1.177418 -0.859737 -0.017404 2.341805152028776e-38
1.170014 -0.864749 -0.017364 2.341805152028776e-38
1.163360 -0.870346 -0.017338 2.341805152028776e-38
1.154260 -0.874123 -0.017275 2.341805152028776e-38
1.146743 -0.879039 -0.017236 2.341805152028776e-38
1.138418 -0.883284 -0.017185 2.341805152028776e-38
1.136374 -0.892403 -0.017228 2.341805152028776e-38
1.419461 -1.142078 -0.021713 2.341805152028776e-38
1.558436 -1.269174 -0.023947 2.341805152028776e-38
1.655828 -1.364880 -0.025560 2.341805152028776e-38
1.658464 -1.383632 -0.025718 2.341805152028776e-38
1.715126 -1.448328 -0.026722 2.341805152028776e-38
1.304022 -0.811271 -0.025696 2.341805152028776e-38
1.274890 -0.803162 -0.025211 2.341805152028776e-38
1.259378 -0.803354 -0.024993 2.341805152028776e-38
1.248105 -0.806110 -0.024858 2.341805152028776e-38
1.240188 -0.810952 -0.024789 2.341805152028776e-38
1.234726 -0.817434 -0.024771 2.341805152028776e-38
1.227544 -0.822806 -0.024719 2.341805152028776e-38
1.221168 -0.828683 -0.024684 2.341805152028776e-38
1.213117 -0.833382 -0.024615 2.341805152028776e-38
1.206694 -0.839158 -0.024578 2.341805152028776e-38
1.199394 -0.844359 -0.024525 2.341805152028776e-38
1.194491 -0.851281 -0.024523 2.341805152028776e-38
1.186304 -0.855835 -0.024452 2.341805152028776e-38
1.180527 -0.862092 -0.024432 2.341805152028776e-38
1.172305 -0.866528 -0.024360 2.341805152028776e-38
1.164839 -0.871541 -0.024306 2.341805152028776e-38
1.156529 -0.875930 -0.024235 2.341805152028776e-38
1.147415 -0.879643 -0.024147 2.341805152028776e-38
1.140667 -0.885118 -0.024108 2.341805152028776e-38
1.150407 -0.903514 -0.024419 2.341805152028776e-38
1.454361 -1.170278 -0.031148 2.341805152028776e-38
1.586175 -1.291898 -0.034126 2.341805152028776e-38
1.661046 -1.369323 -0.035900 2.341805152028776e-38
1.656745 -1.382340 -0.035972 2.341805152028776e-38
1.718754 -1.451544 -0.037494 2.341805152028776e-38
1.299612 -0.808631 -0.032931 2.341805152028776e-38
1.273035 -0.802096 -0.032372 2.341805152028776e-38
1.257531 -0.802278 -0.032091 2.341805152028776e-38
1.248784 -0.806650 -0.031982 2.341805152028776e-38
1.240028 -0.810949 -0.031871 2.341805152028776e-38
1.233731 -0.816881 -0.031827 2.341805152028776e-38
1.228213 -0.823361 -0.031804 2.341805152028776e-38
1.221007 -0.828680 -0.031737 2.341805152028776e-38
1.213780 -0.833945 -0.031669 2.341805152028776e-38
1.206533 -0.839154 -0.031600 2.341805152028776e-38
1.199232 -0.844356 -0.031532 2.341805152028776e-38
1.193514 -0.850698 -0.031507 2.341805152028776e-38
1.186142 -0.855831 -0.031439 2.341805152028776e-38
1.179558 -0.861498 -0.031391 2.341805152028776e-38
1.172948 -0.867117 -0.031342 2.341805152028776e-38
1.166277 -0.872735 -0.031293 2.341805152028776e-38
1.157961 -0.877132 -0.031202 2.341805152028776e-38
1.148047 -0.880245 -0.031067 2.341805152028776e-38
1.146034 -0.889402 -0.031146 2.341805152028776e-38
1.168327 -0.917710 -0.031890 2.341805152028776e-38
1.493094 -1.201611 -0.041120 2.341805152028776e-38
1.621601 -1.320932 -0.044862 2.341805152028776e-38
1.657718 -1.366766 -0.046071 2.341805152028776e-38
1.669551 -1.393216 -0.046613 2.341805152028776e-38
1.743701 -1.472821 -0.048913 2.341805152028776e-38
1.299406 -0.808632 -0.040249 2.341805152028776e-38
1.274524 -0.803162 -0.039618 2.341805152028776e-38
1.259015 -0.803352 -0.039275 2.341805152028776e-38
1.250263 -0.807732 -0.039141 2.341805152028776e-38
1.240665 -0.811493 -0.038980 2.341805152028776e-38
1.234362 -0.817432 -0.038925 2.341805152028776e-38
1.227181 -0.822802 -0.038845 2.341805152028776e-38
1.219978 -0.828116 -0.038763 2.341805152028776e-38
1.212755 -0.833374 -0.038680 2.341805152028776e-38
1.205512 -0.838578 -0.038596 2.341805152028776e-38
1.200664 -0.845504 -0.038591 2.341805152028776e-38
1.194940 -0.851854 -0.038561 2.341805152028776e-38
1.185940 -0.855826 -0.038425 2.341805152028776e-38
1.180164 -0.862081 -0.038392 2.341805152028776e-38
1.173551 -0.867704 -0.038332 2.341805152028776e-38
1.166874 -0.873329 -0.038273 2.341805152028776e-38
1.157758 -0.877126 -0.038136 2.341805152028776e-38
1.149431 -0.881455 -0.038024 2.341805152028776e-38
1.152939 -0.894910 -0.038304 2.341805152028776e-38
1.642231 -1.337967 -0.055538 2.341805152028776e-38
1.655872 -1.365479 -0.056256 2.341805152028776e-38
1.676152 -1.398964 -0.057207 2.341805152028776e-38
1.751012 -1.479257 -0.060044 2.341805152028776e-38
1.296612 -0.807048 -0.047473 2.341805152028776e-38
1.273434 -0.802628 -0.046790 2.341805152028776e-38
1.259616 -0.803887 -0.046447 2.341805152028776e-38
1.250862 -0.808272 -0.046289 2.341805152028776e-38
1.242098 -0.812582 -0.046129 2.341805152028776e-38
1.233286 -0.816879 -0.045972 2.341805152028776e-38
1.226108 -0.822242 -0.045876 2.341805152028776e-38
1.223044 -0.830357 -0.045935 2.341805152028776e-38
