VERSION .7
FIELDS x y z rgb
SIZE 4 4 4 4
TYPE F F F F
COUNT 1 1 1 1
WIDTH 938
HEIGHT 1
VIEWPOINT 0 0 0 1 0 0 0
POINTS 938
DATA ascii
1.249506 -0.799552 -0.103053 2.341805152028776e-38
1.200600 -0.777843 -0.099372 2.341805152028776e-38
1.180319 -0.774247 -0.098049 2.341805152028776e-38
1.170890 -0.777667 -0.097629 2.341805152028776e-38
1.172223 -0.788241 -0.098107 2.341805152028776e-38
1.193264 -0.812330 -0.100245 2.341805152028776e-38
1.216989 -0.779112 -0.107344 2.341805152028776e-38
1.183283 -0.766985 -0.104742 2.341805152028776e-38
1.168067 -0.766584 -0.103773 2.341805152028776e-38
1.160346 -0.771038 -0.103473 2.341805152028776e-38
1.154267 -0.776543 -0.103317 2.341805152028776e-38
1.154757 -0.786495 -0.103750 2.341805152028776e-38
1.156812 -0.797610 -0.104329 2.341805152028776e-38
1.166927 -0.814523 -0.105649 2.341805152028776e-38
1.259495 -0.796741 -0.117903 2.341805152028776e-38
1.197056 -0.766737 -0.112455 2.341805152028776e-38
1.174309 -0.761549 -0.110710 2.341805152028776e-38
1.161622 -0.762750 -0.109916 2.341805152028776e-38
1.154755 -0.767720 -0.109674 2.341805152028776e-38
1.147869 -0.772636 -0.109429 2.341805152028776e-38
1.140964 -0.777500 -0.109181 2.341805152028776e-38
1.137324 -0.784574 -0.109245 2.341805152028776e-38
1.135239 -0.792824 -0.109469 2.341805152028776e-38
1.133077 -0.801104 -0.109695 2.341805152028776e-38
1.132478 -0.810547 -0.110074 2.341805152028776e-38
1.136651 -0.823519 -0.110923 2.341805152028776e-38
1.145536 -0.840104 -0.112241 2.341805152028776e-38
1.230181 -0.778615 -0.122204 2.341805152028776e-38
1.187173 -0.760814 -0.118349 2.341805152028776e-38
1.171157 -0.759910 -0.117167 2.341805152028776e-38
1.160142 -0.762199 -0.116493 2.341805152028776e-38
1.153280 -0.767161 -0.116236 2.341805152028776e-38
1.144745 -0.770956 -0.115809 2.341805152028776e-38
1.137851 -0.775802 -0.115545 2.341805152028776e-38
1.130120 -0.780028 -0.115194 2.341805152028776e-38
1.125601 -0.786536 -0.115183 2.341805152028776e-38
1.121034 -0.793034 -0.115171 2.341805152028776e-38
1.117239 -0.800087 -0.115239 2.341805152028776e-38
1.114206 -0.807707 -0.115387 2.341805152028776e-38
1.113533 -0.817088 -0.115782 2.341805152028776e-38
1.112747 -0.826545 -0.116181 2.341805152028776e-38
1.115855 -0.839036 -0.116997 2.341805152028776e-38
1.120440 -0.852798 -0.117976 2.341805152028776e-38
1.123323 -0.865427 -0.118784 2.341805152028776e-38
1.207592 -0.764753 -0.126887 2.341805152028776e-38
1.178101 -0.755427 -0.124226 2.341805152028776e-38
1.167971 -0.758269 -0.123595 2.341805152028776e-38
1.157793 -0.761100 -0.122973 2.341805152028776e-38
1.150938 -0.766048 -0.122700 2.341805152028776e-38
1.144064 -0.770944 -0.122425 2.341805152028776e-38
1.136349 -0.775225 -0.122057 2.341805152028776e-38
1.127803 -0.778877 -0.121597 2.341805152028776e-38
1.123284 -0.785383 -0.121587 2.341805152028776e-38
1.117910 -0.791293 -0.121485 2.341805152028776e-38
1.110885 -0.796007 -0.121203 2.341805152028776e-38
1.106263 -0.802422 -0.121182 2.341805152028776e-38
1.101604 -0.808810 -0.121158 2.341805152028776e-38
1.096858 -0.815237 -0.121140 2.341805152028776e-38
1.093659 -0.822844 -0.121296 2.341805152028776e-38
1.090409 -0.830442 -0.121448 2.341805152028776e-38
1.087896 -0.838639 -0.121685 2.341805152028776e-38
1.090037 -0.850512 -0.122447 2.341805152028776e-38
3.866611 -2.213815 -0.417096 2.341805152028776e-38
1.195923 -0.757817 -0.132533 2.341805152028776e-38
1.174867 -0.753803 -0.130659 2.341805152028776e-38
1.163906 -0.756098 -0.129902 2.341805152028776e-38
1.155408 -0.760001 -0.129432 2.341805152028776e-38
1.150218 -0.766039 -0.129331 2.341805152028776e-38
1.144171 -0.771487 -0.129133 2.341805152028776e-38
1.137278 -0.776331 -0.128838 2.341805152028776e-38
1.129542 -0.780562 -0.128447 2.341805152028776e-38
1.124193 -0.786513 -0.128343 2.341805152028776e-38
1.115563 -0.790126 -0.127863 2.341805152028776e-38
1.109356 -0.795407 -0.127658 2.341805152028776e-38
1.103126 -0.800644 -0.127449 2.341805152028776e-38
1.098475 -0.807017 -0.127424 2.341805152028776e-38
1.092934 -0.812841 -0.127312 2.341805152028776e-38
1.087362 -0.818629 -0.127197 2.341805152028776e-38
1.081760 -0.824380 -0.127078 2.341805152028776e-38
1.077705 -0.831310 -0.127142 2.341805152028776e-38
1.074390 -0.838835 -0.127294 2.341805152028776e-38
1.190113 -0.754611 -0.138740 2.341805152028776e-38
1.172436 -0.752715 -0.137161 2.341805152028776e-38
1.163145 -0.756096 -0.136564 2.341805152028776e-38
1.155481 -0.760541 -0.136167 2.341805152028776e-38
1.149460 -0.766029 -0.135962 2.341805152028776e-38
1.143415 -0.771473 -0.135753 2.341805152028776e-38
1.135701 -0.775751 -0.135344 2.341805152028776e-38
1.128780 -0.780553 -0.135032 2.341805152028776e-38
1.124247 -0.787070 -0.135020 2.341805152028776e-38
1.116428 -0.791260 -0.134613 2.341805152028776e-38
1.106982 -0.794226 -0.134005 2.341805152028776e-38
1.099954 -0.798864 -0.133687 2.341805152028776e-38
1.095305 -0.805231 -0.133662 2.341805152028776e-38
1.090573 -0.811632 -0.133642 2.341805152028776e-38
1.082624 -0.815610 -0.133227 2.341805152028776e-38
1.077832 -0.821937 -0.133199 2.341805152028776e-38
1.072214 -0.827629 -0.133070 2.341805152028776e-38
1.068129 -0.834518 -0.133133 2.341805152028776e-38
1.230639 -0.771115 -0.150036 2.341805152028776e-38
1.188471 -0.754068 -0.145403 2.341805152028776e-38
1.171643 -0.752702 -0.143850 2.341805152028776e-38
1.163179 -0.756635 -0.143327 2.341805152028776e-38
1.155514 -0.761081 -0.142910 2.341805152028776e-38
1.147837 -0.765465 -0.142489 2.341805152028776e-38
1.140147 -0.769787 -0.142064 2.341805152028776e-38
1.133266 -0.774608 -0.141737 2.341805152028776e-38
1.129616 -0.781675 -0.141823 2.341805152028776e-38
1.127520 -0.789909 -0.142118 2.341805152028776e-38
1.120499 -0.794694 -0.141792 2.341805152028776e-38
1.108612 -0.795943 -0.140846 2.341805152028776e-38
1.099967 -0.799422 -0.140307 2.341805152028776e-38
1.096106 -0.806392 -0.140384 2.341805152028776e-38
1.088974 -0.811015 -0.140055 2.341805152028776e-38
1.083414 -0.816781 -0.139927 2.341805152028776e-38
1.077033 -0.821906 -0.139692 2.341805152028776e-38
1.070629 -0.826986 -0.139453 2.341805152028776e-38
1.065754 -0.833266 -0.139418 2.341805152028776e-38
1.220507 -0.765298 -0.155830 2.341805152028776e-38
1.184274 -0.751926 -0.151734 2.341805152028776e-38
1.169140 -0.751611 -0.150322 2.341805152028776e-38
1.162341 -0.756630 -0.149993 2.341805152028776e-38
1.153849 -0.760525 -0.149448 2.341805152028776e-38
1.146177 -0.764900 -0.149006 2.341805152028776e-38
1.137669 -0.768656 -0.148453 2.341805152028776e-38
1.129976 -0.772903 -0.148003 2.341805152028776e-38
1.129594 -0.782229 -0.148524 2.341805152028776e-38
1.125865 -0.789322 -0.148617 2.341805152028776e-38
1.117228 -0.792947 -0.148061 2.341805152028776e-38
1.108586 -0.796499 -0.147500 2.341805152028776e-38
1.101549 -0.801147 -0.147150 2.341805152028776e-38
1.096066 -0.806961 -0.147017 2.341805152028776e-38
1.088135 -0.810991 -0.146565 2.341805152028776e-38
1.081782 -0.816153 -0.146322 2.341805152028776e-38
1.073826 -0.820063 -0.145861 2.341805152028776e-38
1.067434 -0.825125 -0.145610 2.341805152028776e-38
1.062559 -0.831399 -0.145576 2.341805152028776e-38
1.214558 -0.762121 -0.162080 2.341805152028776e-38
1.181721 -0.750848 -0.158250 2.341805152028776e-38
1.169944 -0.752670 -0.157224 2.341805152028776e-38
1.162298 -0.757167 -0.156770 2.341805152028776e-38
1.153805 -0.761062 -0.156201 2.341805152028776e-38
1.146133 -0.765437 -0.155738 2.341805152028776e-38
1.138448 -0.769750 -0.155272 2.341805152028776e-38
1.132391 -0.775124 -0.155025 2.341805152028776e-38
1.127899 -0.781649 -0.155011 2.341805152028776e-38
1.124987 -0.789304 -0.155219 2.341805152028776e-38
1.114732 -0.791773 -0.154412 2.341805152028776e-38
1.108521 -0.797052 -0.154162 2.341805152028776e-38
1.101482 -0.801701 -0.153796 2.341805152028776e-38
1.095986 -0.807529 -0.153659 2.341805152028776e-38
1.089648 -0.812747 -0.153410 2.341805152028776e-38
1.081700 -0.816721 -0.152932 2.341805152028776e-38
1.072953 -0.820028 -0.152337 2.341805152028776e-38
1.065777 -0.824477 -0.151962 2.341805152028776e-38
1.062460 -0.831980 -0.152152 2.341805152028776e-38
1.204372 -0.756302 -0.167687 2.341805152028776e-38
1.179133 -0.749768 -0.164747 2.341805152028776e-38
1.167360 -0.751587 -0.163679 2.341805152028776e-38
1.159719 -0.756076 -0.163206 2.341805152028776e-38
1.152065 -0.760503 -0.162728 2.341805152028776e-38
1.145224 -0.765421 -0.162362 2.341805152028776e-38
1.137542 -0.769730 -0.161874 2.341805152028776e-38
1.130666 -0.774540 -0.161500 2.341805152028776e-38
1.123719 -0.779371 -0.161136 2.341805152028776e-38
1.117568 -0.784719 -0.160884 2.341805152028776e-38
1.112201 -0.790598 -0.160744 2.341805152028776e-38
1.106804 -0.796443 -0.160600 2.341805152028776e-38
1.100574 -0.801668 -0.160334 2.341805152028776e-38
1.094268 -0.806916 -0.160076 2.341805152028776e-38
1.087935 -0.812124 -0.159816 2.341805152028776e-38
1.079201 -0.815491 -0.159199 2.341805152028776e-38
1.071254 -0.819387 -0.158696 2.341805152028776e-38
1.064869 -0.824435 -0.158421 2.341805152028776e-38
1.063885 -0.833785 -0.158971 2.341805152028776e-38
1.198364 -0.753123 -0.173798 2.341805152028776e-38
1.179859 -0.750818 -0.171712 2.341805152028776e-38
1.167240 -0.752122 -0.170481 2.341805152028776e-38
1.158768 -0.756068 -0.169866 2.341805152028776e-38
1.151116 -0.760491 -0.169367 2.341805152028776e-38
1.145103 -0.765955 -0.169107 2.341805152028776e-38
1.137420 -0.770264 -0.168598 2.341805152028776e-38
1.130532 -0.775090 -0.168211 2.341805152028776e-38
1.123584 -0.779920 -0.167831 2.341805152028776e-38
1.119055 -0.786410 -0.167811 2.341805152028776e-38
1.112870 -0.791723 -0.167543 2.341805152028776e-38
1.105856 -0.796412 -0.167148 2.341805152028776e-38
1.099621 -0.801642 -0.166872 2.341805152028776e-38
1.094111 -0.807480 -0.166727 2.341805152028776e-38
1.086980 -0.812094 -0.166332 2.341805152028776e-38
1.079833 -0.816653 -0.165933 2.341805152028776e-38
1.073458 -0.821761 -0.165651 2.341805152028776e-38
1.066275 -0.826216 -0.165243 2.341805152028776e-38
1.068391 -0.838038 -0.166303 2.341805152028776e-38
4.187446 -2.378681 -0.614976 2.341805152028776e-38
1.242884 -0.771984 -0.186827 2.341805152028776e-38
1.192326 -0.749942 -0.179850 2.341805152028776e-38
1.175524 -0.748670 -0.177935 2.341805152028776e-38
1.165414 -0.751580 -0.177039 2.341805152028776e-38
1.159439 -0.757143 -0.176778 2.341805152028776e-38
1.151785 -0.761570 -0.176259 2.341805152028776e-38
1.142469 -0.764832 -0.175481 2.341805152028776e-38
1.137259 -0.770796 -0.175331 2.341805152028776e-38
1.130358 -0.775638 -0.174931 2.341805152028776e-38
1.124224 -0.781034 -0.174662 2.341805152028776e-38
1.117254 -0.785816 -0.174260 2.341805152028776e-38
1.110266 -0.790544 -0.173854 2.341805152028776e-38
1.104066 -0.795799 -0.173569 2.341805152028776e-38
1.098625 -0.801619 -0.173411 2.341805152028776e-38
1.092318 -0.806863 -0.173132 2.341805152028776e-38
1.085988 -0.812061 -0.172848 2.341805152028776e-38
1.078843 -0.816615 -0.172433 2.341805152028776e-38
1.072470 -0.821718 -0.172139 2.341805152028776e-38
1.064493 -0.825576 -0.171590 2.341805152028776e-38
1.070508 -0.840450 -0.173322 2.341805152028776e-38
1.229182 -0.764124 -0.191903 2.341805152028776e-38
1.188775 -0.748343 -0.186239 2.341805152028776e-38
1.174501 -0.748651 -0.184645 2.341805152028776e-38
1.166882 -0.753187 -0.184112 2.341805152028776e-38
1.158410 -0.757132 -0.183446 2.341805152028776e-38
1.150759 -0.761554 -0.182906 2.341805152028776e-38
1.143918 -0.766466 -0.182492 2.341805152028776e-38
1.137059 -0.771325 -0.182073 2.341805152028776e-38
1.129327 -0.775624 -0.181529 2.341805152028776e-38
1.124008 -0.781580 -0.181379 2.341805152028776e-38
1.117037 -0.786361 -0.180962 2.341805152028776e-38
1.109242 -0.790514 -0.180408 2.341805152028776e-38
1.103847 -0.796344 -0.180242 2.341805152028776e-38
1.099192 -0.802764 -0.180212 2.341805152028776e-38
1.093677 -0.808601 -0.180053 2.341805152028776e-38
1.086544 -0.813214 -0.179626 2.341805152028776e-38
1.078605 -0.817174 -0.179062 2.341805152028776e-38
1.072230 -0.822276 -0.178756 2.341805152028776e-38
1.063458 -0.825541 -0.178058 2.341805152028776e-38
1.076478 -0.845922 -0.181034 2.341805152028776e-38
1.217985 -0.757833 -0.197244 2.341805152028776e-38
1.186028 -0.747271 -0.192735 2.341805152028776e-38
1.172601 -0.748104 -0.191219 2.341805152028776e-38
1.164146 -0.752105 -0.190533 2.341805152028776e-38
1.158172 -0.757662 -0.190250 2.341805152028776e-38
1.150520 -0.762083 -0.189689 2.341805152028776e-38
1.143679 -0.766994 -0.189258 2.341805152028776e-38
1.136000 -0.771297 -0.188686 2.341805152028776e-38
1.129074 -0.776169 -0.188262 2.341805152028776e-38
1.121314 -0.780427 -0.187698 2.341805152028776e-38
1.113542 -0.784622 -0.187127 2.341805152028776e-38
1.107373 -0.789906 -0.186824 2.341805152028776e-38
1.103589 -0.796886 -0.186924 2.341805152028776e-38
1.098118 -0.802737 -0.186759 2.341805152028776e-38
1.091808 -0.807980 -0.186457 2.341805152028776e-38
1.085474 -0.813177 -0.186149 2.341805152028776e-38
1.078327 -0.817730 -0.185700 2.341805152028776e-38
1.071951 -0.822832 -0.185381 2.341805152028776e-38
1.061602 -0.824895 -0.184388 2.341805152028776e-38
1.082394 -0.851391 -0.188830 2.341805152028776e-38
1.218533 -0.758868 -0.204444 2.341805152028776e-38
1.184922 -0.747254 -0.199493 2.341805152028776e-38
1.171489 -0.748101 -0.197928 2.341805152028776e-38
1.163870 -0.752633 -0.197357 2.341805152028776e-38
1.157066 -0.757647 -0.196922 2.341805152028776e-38
1.149418 -0.762062 -0.196339 2.341805152028776e-38
1.144223 -0.768072 -0.196174 2.341805152028776e-38
1.134893 -0.771279 -0.195302 2.341805152028776e-38
1.127151 -0.775589 -0.194722 2.341805152028776e-38
1.120209 -0.780403 -0.194277 2.341805152028776e-38
1.114059 -0.785734 -0.193968 2.341805152028776e-38
1.107885 -0.791021 -0.193653 2.341805152028776e-38
1.102487 -0.796847 -0.193473 2.341805152028776e-38
1.097005 -0.802709 -0.193305 2.341805152028776e-38
1.090697 -0.807945 -0.192991 2.341805152028776e-38
1.085949 -0.814325 -0.192952 2.341805152028776e-38
1.079587 -0.819480 -0.192627 2.341805152028776e-38
1.073202 -0.824590 -0.192296 2.341805152028776e-38
1.061272 -0.825463 -0.190990 2.341805152028776e-38
1.092146 -0.859919 -0.197413 2.341805152028776e-38
1.213162 -0.756237 -0.210641 2.341805152028776e-38
1.181267 -0.745650 -0.205813 2.341805152028776e-38
1.169505 -0.747563 -0.204490 2.341805152028776e-38
1.161062 -0.751547 -0.203753 2.341805152028776e-38
1.154267 -0.756546 -0.203301 2.341805152028776e-38
1.149101 -0.762587 -0.203135 2.341805152028776e-38
1.142262 -0.767492 -0.202671 2.341805152028776e-38
1.136198 -0.772934 -0.202356 2.341805152028776e-38
1.136598 -0.782864 -0.203212 2.341805152028776e-38
1.132051 -0.789431 -0.203187 2.341805152028776e-38
1.116959 -0.788555 -0.201263 2.341805152028776e-38
1.106746 -0.790984 -0.200208 2.341805152028776e-38
1.101336 -0.796822 -0.200025 2.341805152028776e-38
1.094258 -0.801508 -0.199559 2.341805152028776e-38
1.089548 -0.807908 -0.199524 2.341805152028776e-38
1.084801 -0.814282 -0.199483 2.341805152028776e-38
1.077653 -0.818833 -0.198999 2.341805152028776e-38
1.069697 -0.822736 -0.198367 2.341805152028776e-38
1.057779 -0.823597 -0.197017 2.341805152028776e-38
1.210276 -0.755174 -0.217242 2.341805152028776e-38
1.181758 -0.746684 -0.212856 2.341805152028776e-38
1.167485 -0.747023 -0.211043 2.341805152028776e-38
1.159879 -0.751535 -0.210430 2.341805152028776e-38
1.153913 -0.757069 -0.210112 2.341805152028776e-38
1.147922 -0.762562 -0.209788 2.341805152028776e-38
1.141085 -0.767461 -0.209308 2.341805152028776e-38
1.143180 -0.778482 -0.210491 2.341805152028776e-38
1.149239 -0.792381 -0.212426 2.341805152028776e-38
1.136531 -0.793363 -0.210894 2.341805152028776e-38
1.121428 -0.792514 -0.208905 2.341805152028776e-38
1.108785 -0.793245 -0.207363 2.341805152028776e-38
1.102548 -0.798534 -0.207027 2.341805152028776e-38
1.095463 -0.803228 -0.206544 2.341805152028776e-38
1.091537 -0.810226 -0.206657 2.341805152028776e-38
1.083614 -0.814236 -0.206012 2.341805152028776e-38
1.076469 -0.818782 -0.205511 2.341805152028776e-38
1.069286 -0.823300 -0.205011 2.341805152028776e-38
1.056593 -0.823552 -0.203466 2.341805152028776e-38
2.152994 -1.245760 -0.391181 2.341805152028776e-38
2.123006 -1.244260 -0.386971 2.341805152028776e-38
1.204841 -0.752538 -0.223356 2.341805152028776e-38
1.178023 -0.745090 -0.219144 2.341805152028776e-38
1.166260 -0.747015 -0.217740 2.341805152028776e-38
1.158658 -0.751520 -0.217106 2.341805152028776e-38
1.152693 -0.757048 -0.216776 2.341805152028776e-38
1.145881 -0.761988 -0.216285 2.341805152028776e-38
1.139050 -0.766877 -0.215788 2.341805152028776e-38
1.141127 -0.777906 -0.217013 2.341805152028776e-38
1.139048 -0.786183 -0.217455 2.341805152028776e-38
1.123146 -0.784844 -0.215252 2.341805152028776e-38
1.113749 -0.787913 -0.214286 2.341805152028776e-38
1.105961 -0.792051 -0.213624 2.341805152028776e-38
1.100517 -0.797924 -0.213437 2.341805152028776e-38
1.093439 -0.802608 -0.212937 2.341805152028776e-38
1.088722 -0.809005 -0.212896 2.341805152028776e-38
1.083179 -0.814782 -0.212694 2.341805152028776e-38
1.076033 -0.819326 -0.212176 2.341805152028776e-38
1.068835 -0.823860 -0.211664 2.341805152028776e-38
1.056927 -0.824719 -0.210222 2.341805152028776e-38
2.131008 -1.202770 -0.396973 2.341805152028776e-38
2.119130 -1.211689 -0.396015 2.341805152028776e-38
2.101239 -1.217053 -0.393925 2.341805152028776e-38
2.074840 -1.217264 -0.390223 2.341805152028776e-38
1.257344 -0.776302 -0.239688 2.341805152028776e-38
1.200213 -0.750424 -0.229582 2.341805152028776e-38
1.177586 -0.745613 -0.226046 2.341805152028776e-38
1.167490 -0.748602 -0.224916 2.341805152028776e-38
1.159054 -0.752578 -0.224101 2.341805152028776e-38
1.152261 -0.757567 -0.223599 2.341805152028776e-38
1.144626 -0.761959 -0.222931 2.341805152028776e-38
1.139421 -0.767964 -0.222743 2.341805152028776e-38
1.134145 -0.773990 -0.222564 2.341805152028776e-38
1.128026 -0.779422 -0.222218 2.341805152028776e-38
1.119455 -0.783112 -0.221386 2.341805152028776e-38
1.114102 -0.789014 -0.221188 2.341805152028776e-38
1.106307 -0.793161 -0.220505 2.341805152028776e-38
1.099249 -0.797891 -0.219995 2.341805152028776e-38
1.093764 -0.803738 -0.219798 2.341805152028776e-38
1.089041 -0.810138 -0.219754 2.341805152028776e-38
1.082703 -0.815324 -0.219384 2.341805152028776e-38
1.075557 -0.819867 -0.218849 2.341805152028776e-38
1.067562 -0.823815 -0.218164 2.341805152028776e-38
1.060330 -0.828314 -0.217635 2.341805152028776e-38
2.115882 -1.195499 -0.406352 2.341805152028776e-38
2.098058 -1.200905 -0.404207 2.341805152028776e-38
2.080239 -1.206153 -0.402051 2.341805152028776e-38
2.054768 -1.206755 -0.398402 2.341805152028776e-38
1.240869 -0.766950 -0.243869 2.341805152028776e-38
1.194718 -0.747784 -0.235603 2.341805152028776e-38
1.176275 -0.745607 -0.232791 2.341805152028776e-38
1.165355 -0.748057 -0.231461 2.341805152028776e-38
1.157754 -0.752558 -0.230784 2.341805152028776e-38
1.150140 -0.756999 -0.230101 2.341805152028776e-38
1.143334 -0.761926 -0.229576 2.341805152028776e-38
1.138931 -0.768499 -0.229552 2.341805152028776e-38
1.131210 -0.772854 -0.228871 2.341805152028776e-38
1.123477 -0.777147 -0.228184 2.341805152028776e-38
1.117348 -0.782510 -0.227819 2.341805152028776e-38
1.111999 -0.788400 -0.227613 2.341805152028776e-38
1.104195 -0.792557 -0.226915 2.341805152028776e-38
1.097942 -0.797856 -0.226552 2.341805152028776e-38
1.092458 -0.803696 -0.226347 2.341805152028776e-38
1.086944 -0.809500 -0.226136 2.341805152028776e-38
1.079037 -0.813488 -0.225424 2.341805152028776e-38
1.073464 -0.819219 -0.225204 2.341805152028776e-38
1.066251 -0.823767 -0.224664 2.341805152028776e-38
1.062907 -0.831297 -0.224939 2.341805152028776e-38
2.097286 -1.186283 -0.414907 2.341805152028776e-38
2.082091 -1.193057 -0.413205 2.341805152028776e-38
2.066033 -1.199208 -0.411322 2.341805152028776e-38
2.035496 -1.196778 -0.406561 2.341805152028776e-38
1.231092 -0.761745 -0.249234 2.341805152028776e-38
1.192528 -0.747243 -0.242257 2.341805152028776e-38
1.174925 -0.745598 -0.239536 2.341805152028776e-38
1.165672 -0.749107 -0.238505 2.341805152028776e-38
1.157243 -0.753073 -0.237636 2.341805152028776e-38
1.151275 -0.758597 -0.237270 2.341805152028776e-38
1.144463 -0.763532 -0.236728 2.341805152028776e-38
1.139218 -0.769583 -0.236538 2.341805152028776e-38
1.130681 -0.773384 -0.235666 2.341805152028776e-38
1.122948 -0.777675 -0.234957 2.341805152028776e-38
1.116818 -0.783036 -0.234580 2.341805152028776e-38
1.111467 -0.788925 -0.234367 2.341805152028776e-38
1.104449 -0.793675 -0.233821 2.341805152028776e-38
1.098190 -0.798977 -0.233446 2.341805152028776e-38
1.091114 -0.803651 -0.232895 2.341805152028776e-38
1.085602 -0.809449 -0.232676 2.341805152028776e-38
1.079272 -0.814618 -0.232281 2.341805152028776e-38
1.072110 -0.819174 -0.231719 2.341805152028776e-38
1.067240 -0.825524 -0.231669 2.341805152028776e-38
1.071643 -0.839138 -0.233642 2.341805152028776e-38
1.220458 -0.756018 -0.254329 2.341805152028776e-38
1.188622 -0.745669 -0.248556 2.341805152028776e-38
1.172706 -0.745059 -0.246105 2.341805152028776e-38
1.163462 -0.748556 -0.245043 2.341805152028776e-38
1.155041 -0.752511 -0.244148 2.341805152028776e-38
1.149078 -0.758023 -0.243770 2.341805152028776e-38
1.142262 -0.762960 -0.243214 2.341805152028776e-38
1.136199 -0.768457 -0.242846 2.341805152028776e-38
1.130111 -0.773911 -0.242470 2.341805152028776e-38
1.123189 -0.778761 -0.241913 2.341805152028776e-38
1.117054 -0.784125 -0.241524 2.341805152028776e-38
1.110895 -0.789446 -0.241128 2.341805152028776e-38
1.103860 -0.794216 -0.240572 2.341805152028776e-38
1.096009 -0.798356 -0.239835 2.341805152028776e-38
1.089732 -0.803603 -0.239441 2.341805152028776e-38
1.083431 -0.808805 -0.239040 2.341805152028776e-38
1.077893 -0.814557 -0.238806 2.341805152028776e-38
1.069937 -0.818528 -0.238058 2.341805152028776e-38
1.068962 -0.827881 -0.238875 2.341805152028776e-38
1.082639 -0.848798 -0.242989 2.341805152028776e-38
1.212314 -0.751844 -0.259854 2.341805152028776e-38
1.187182 -0.745662 -0.255364 2.341805152028776e-38
1.171281 -0.745045 -0.252843 2.341805152028776e-38
1.162043 -0.748535 -0.251749 2.341805152028776e-38
1.155275 -0.753558 -0.251186 2.341805152028776e-38
1.148488 -0.758531 -0.250616 2.341805152028776e-38
1.141654 -0.763489 -0.250051 2.341805152028776e-38
1.136405 -0.769535 -0.249849 2.341805152028776e-38
1.129501 -0.774435 -0.249282 2.341805152028776e-38
1.121771 -0.778722 -0.248528 2.341805152028776e-38
1.116443 -0.784645 -0.248305 2.341805152028776e-38
1.109467 -0.789412 -0.247723 2.341805152028776e-38
1.102433 -0.794178 -0.247151 2.341805152028776e-38
1.095381 -0.798892 -0.246571 2.341805152028776e-38
1.089894 -0.804720 -0.246343 2.341805152028776e-38
1.084377 -0.810514 -0.246107 2.341805152028776e-38
1.077259 -0.815087 -0.245508 2.341805152028776e-38
1.069288 -0.819075 -0.244744 2.341805152028776e-38
1.073748 -0.832646 -0.246832 2.341805152028776e-38
1.101303 -0.864527 -0.254273 2.341805152028776e-38
1.261978 -0.773732 -0.277104 2.341805152028776e-38
1.203306 -0.747160 -0.265121 2.341805152028776e-38
1.181543 -0.743037 -0.261250 2.341805152028776e-38
1.169817 -0.745028 -0.259580 2.341805152028776e-38
1.162237 -0.749576 -0.258822 2.341805152028776e-38
1.153820 -0.753527 -0.257874 2.341805152028776e-38
1.147037 -0.758493 -0.257286 2.341805152028776e-38
1.139372 -0.762922 -0.256528 2.341805152028776e-38
1.133313 -0.768404 -0.256135 2.341805152028776e-38
1.126419 -0.773288 -0.255550 2.341805152028776e-38
1.120314 -0.778680 -0.255142 2.341805152028776e-38
1.114184 -0.784031 -0.254727 2.341805152028776e-38
1.108799 -0.789949 -0.254502 2.341805152028776e-38
1.101764 -0.794713 -0.253912 2.341805152028776e-38
1.093918 -0.798844 -0.253132 2.341805152028776e-38
1.086852 -0.803497 -0.252528 2.341805152028776e-38
1.081344 -0.809274 -0.252284 2.341805152028776e-38
1.074219 -0.813852 -0.251673 2.341805152028776e-38
1.066259 -0.817824 -0.250886 2.341805152028776e-38
1.076926 -0.836201 -0.254496 2.341805152028776e-38
1.116007 -0.877213 -0.264884 2.341805152028776e-38
2.856778 -1.623394 -0.631764 2.341805152028776e-38
1.240308 -0.761376 -0.279761 2.341805152028776e-38
1.194265 -0.742488 -0.270307 2.341805152028776e-38
1.178369 -0.741978 -0.267654 2.341805152028776e-38
1.169143 -0.745537 -0.266504 2.341805152028776e-38
1.162389 -0.750615 -0.265913 2.341805152028776e-38
1.153972 -0.754568 -0.264937 2.341805152028776e-38
1.147175 -0.759550 -0.264337 2.341805152028776e-38
1.140316 -0.764539 -0.263749 2.341805152028776e-38
1.134250 -0.770028 -0.263343 2.341805152028776e-38
1.125732 -0.773805 -0.262363 2.341805152028776e-38
1.119625 -0.779196 -0.261942 2.341805152028776e-38
1.113495 -0.784544 -0.261515 2.341805152028776e-38
1.107290 -0.789912 -0.261101 2.341805152028776e-38
1.099463 -0.794094 -0.260305 2.341805152028776e-38
1.094003 -0.799952 -0.260067 2.341805152028776e-38
1.088513 -0.805776 -0.259822 2.341805152028776e-38
1.081420 -0.810387 -0.259193 2.341805152028776e-38
1.073491 -0.814395 -0.258382 2.341805152028776e-38
1.063975 -0.817168 -0.257196 2.341805152028776e-38
1.083927 -0.842766 -0.263156 2.341805152028776e-38
1.136027 -0.894144 -0.277009 2.341805152028776e-38
2.859181 -1.626763 -0.649102 2.341805152028776e-38
1.236202 -0.759807 -0.286253 2.341805152028776e-38
1.201030 -0.747665 -0.279082 2.341805152028776e-38
1.180970 -0.744579 -0.275392 2.341805152028776e-38
1.166774 -0.744986 -0.273049 2.341805152028776e-38
1.159203 -0.749520 -0.272247 2.341805152028776e-38
1.150797 -0.753456 -0.271244 2.341805152028776e-38
1.144809 -0.758988 -0.270828 2.341805152028776e-38
1.137957 -0.763965 -0.270223 2.341805152028776e-38
1.130274 -0.768339 -0.269417 2.341805152028776e-38
1.122579 -0.772651 -0.268604 2.341805152028776e-38
1.116481 -0.778025 -0.268170 2.341805152028776e-38
1.110346 -0.783373 -0.267735 2.341805152028776e-38
1.105742 -0.789872 -0.267697 2.341805152028776e-38
1.100305 -0.795771 -0.267458 2.341805152028776e-38
1.094836 -0.801636 -0.267212 2.341805152028776e-38
1.086972 -0.805713 -0.266379 2.341805152028776e-38
1.079883 -0.810318 -0.265732 2.341805152028776e-38
1.072723 -0.814934 -0.265099 2.341805152028776e-38
1.060877 -0.815909 -0.263301 2.341805152028776e-38
1.083123 -0.843298 -0.269989 2.341805152028776e-38
1.162108 -0.915927 -0.290942 2.341805152028776e-38
2.827415 -1.610718 -0.658569 2.341805152028776e-38
1.237892 -0.761848 -0.294109 2.341805152028776e-38
1.201911 -0.749210 -0.286564 2.341805152028776e-38
1.181864 -0.746130 -0.282780 2.341805152028776e-38
1.167672 -0.746544 -0.280376 2.341805152028776e-38
1.159274 -0.750551 -0.279353 2.341805152028776e-38
1.150868 -0.754490 -0.278323 2.341805152028776e-38
1.143224 -0.758966 -0.277507 2.341805152028776e-38
1.135561 -0.763388 -0.276686 2.341805152028776e-38
1.130317 -0.769404 -0.276452 2.341805152028776e-38
1.122620 -0.773719 -0.275616 2.341805152028776e-38
1.117323 -0.779655 -0.275368 2.341805152028776e-38
1.111962 -0.785600 -0.275126 2.341805152028776e-38
1.107345 -0.792109 -0.275084 2.341805152028776e-38
1.100308 -0.796870 -0.274441 2.341805152028776e-38
1.094834 -0.802736 -0.274186 2.341805152028776e-38
1.087755 -0.807400 -0.273527 2.341805152028776e-38
1.081426 -0.812620 -0.273067 2.341805152028776e-38
1.073474 -0.816656 -0.272219 2.341805152028776e-38
1.060075 -0.816442 -0.269979 2.341805152028776e-38
1.090781 -0.850456 -0.279003 2.341805152028776e-38
1.161902 -0.917053 -0.298492 2.341805152028776e-38
2.789675 -1.591277 -0.666298 2.341805152028776e-38
1.220353 -0.752081 -0.297334 2.341805152028776e-38
1.193609 -0.745048 -0.291839 2.341805152028776e-38
1.177746 -0.744538 -0.288976 2.341805152028776e-38
1.166051 -0.746514 -0.287121 2.341805152028776e-38
1.158480 -0.751047 -0.286274 2.341805152028776e-38
1.150881 -0.755540 -0.285426 2.341805152028776e-38
1.141599 -0.758940 -0.284185 2.341805152028776e-38
1.137191 -0.765541 -0.284153 2.341805152028776e-38
1.131935 -0.771568 -0.283910 2.341805152028776e-38
1.125842 -0.777007 -0.283457 2.341805152028776e-38
1.118119 -0.781282 -0.282591 2.341805152028776e-38
1.110332 -0.785560 -0.281741 2.341805152028776e-38
1.104919 -0.791492 -0.281493 2.341805152028776e-38
1.099475 -0.797390 -0.281237 2.341805152028776e-38
1.092421 -0.802094 -0.280568 2.341805152028776e-38
1.083777 -0.805577 -0.279486 2.341805152028776e-38
1.078225 -0.811388 -0.279223 2.341805152028776e-38
1.071063 -0.816000 -0.278554 2.341805152028776e-38
1.057681 -0.815774 -0.276258 2.341805152028776e-38
1.099915 -0.858813 -0.288534 2.341805152028776e-38
1.167796 -0.923032 -0.307677 2.341805152028776e-38
2.669509 -1.524831 -0.653499 2.341805152028776e-38
1.250477 -0.761889 -0.311194 2.341805152028776e-38
1.206981 -0.744880 -0.301416 2.341805152028776e-38
1.187775 -0.742438 -0.297659 2.341805152028776e-38
1.176075 -0.744512 -0.295765 2.341805152028776e-38
1.166038 -0.747537 -0.294279 2.341805152028776e-38
1.159286 -0.752604 -0.293617 2.341805152028776e-38
1.150846 -0.756593 -0.292549 2.341805152028776e-38
1.141565 -0.759995 -0.291275 2.341805152028776e-38
1.139584 -0.768238 -0.291863 2.341805152028776e-38
1.141585 -0.779244 -0.293481 2.341805152028776e-38
1.132231 -0.782516 -0.292184 2.341805152028776e-38
1.118853 -0.782925 -0.289849 2.341805152028776e-38
1.111058 -0.787214 -0.288977 2.341805152028776e-38
1.105637 -0.793151 -0.288720 2.341805152028776e-38
1.098601 -0.797905 -0.288041 2.341805152028776e-38
1.090759 -0.802027 -0.287146 2.341805152028776e-38
1.083692 -0.806672 -0.286451 2.341805152028776e-38
1.078114 -0.812507 -0.286187 2.341805152028776e-38
1.070949 -0.817121 -0.285500 2.341805152028776e-38
1.057574 -0.816897 -0.283147 2.341805152028776e-38
1.106663 -0.865357 -0.297573 2.341805152028776e-38
1.167486 -0.924147 -0.315297 2.341805152028776e-38
2.558062 -1.463228 -0.641514 2.341805152028776e-38
1.240337 -0.756794 -0.316219 2.341805152028776e-38
1.202745 -0.743325 -0.307702 2.341805152028776e-38
1.184398 -0.741379 -0.304068 2.341805152028776e-38
1.172715 -0.743437 -0.302127 2.341805152028776e-38
1.161870 -0.745916 -0.300392 2.341805152028776e-38
1.156767 -0.752031 -0.300138 2.341805152028776e-38
1.149134 -0.756568 -0.299265 2.341805152028776e-38
1.140674 -0.760503 -0.298171 2.341805152028776e-38
1.141116 -0.770384 -0.299407 2.341805152028776e-38
1.135835 -0.776437 -0.299147 2.341805152028776e-38
1.124094 -0.778009 -0.297180 2.341805152028776e-38
1.115536 -0.781764 -0.296072 2.341805152028776e-38
1.110942 -0.788297 -0.296027 2.341805152028776e-38
1.103927 -0.793096 -0.295337 2.341805152028776e-38
1.096105 -0.797267 -0.294427 2.341805152028776e-38
1.089059 -0.801957 -0.293721 2.341805152028776e-38
1.082759 -0.807201 -0.293228 2.341805152028776e-38
1.075619 -0.811856 -0.292531 2.341805152028776e-38
1.068462 -0.816457 -0.291826 2.341805152028776e-38
1.058197 -0.818613 -0.290265 2.341805152028776e-38
1.109497 -0.868882 -0.305654 2.341805152028776e-38
1.146449 -0.908868 -0.317213 2.341805152028776e-38
2.429052 -1.391429 -0.623744 2.341805152028776e-38
1.234346 -0.754241 -0.322234 2.341805152028776e-38
1.198478 -0.741767 -0.313957 2.341805152028776e-38
1.180987 -0.740318 -0.310456 2.341805152028776e-38
1.171794 -0.743927 -0.309120 2.341805152028776e-38
1.163419 -0.747987 -0.307995 2.341805152028776e-38
1.156648 -0.753075 -0.307309 2.341805152028776e-38
1.149829 -0.758151 -0.306630 2.341805152028776e-38
1.142989 -0.763176 -0.305943 2.341805152028776e-38
1.136131 -0.768151 -0.305248 2.341805152028776e-38
1.130058 -0.773627 -0.304762 2.341805152028776e-38
1.122352 -0.777953 -0.303836 2.341805152028776e-38
1.114583 -0.782282 -0.302926 2.341805152028776e-38
1.109189 -0.788246 -0.302660 2.341805152028776e-38
1.103764 -0.794177 -0.302385 2.341805152028776e-38
1.095152 -0.797775 -0.301234 2.341805152028776e-38
1.089678 -0.803620 -0.300944 2.341805152028776e-38
1.083350 -0.808894 -0.300446 2.341805152028776e-38
1.076982 -0.814144 -0.299948 2.341805152028776e-38
1.071366 -0.819942 -0.299657 2.341805152028776e-38
1.071121 -0.829890 -0.300877 2.341805152028776e-38
1.136856 -0.891681 -0.320723 2.341805152028776e-38
1.159817 -0.920926 -0.328644 2.341805152028776e-38
2.258042 -1.295365 -0.593443 2.341805152028776e-38
1.222505 -0.748121 -0.326644 2.341805152028776e-38
1.192520 -0.739178 -0.319737 2.341805152028776e-38
1.179194 -0.740289 -0.317267 2.341805152028776e-38
1.170008 -0.743890 -0.315899 2.341805152028776e-38
1.160000 -0.746886 -0.314301 2.341805152028776e-38
1.154851 -0.753051 -0.314053 2.341805152028776e-38
1.148036 -0.758118 -0.313356 2.341805152028776e-38
1.142822 -0.764219 -0.313094 2.341805152028776e-38
1.134346 -0.768102 -0.311936 2.341805152028776e-38
1.126668 -0.772466 -0.310993 2.341805152028776e-38
1.119753 -0.777358 -0.310276 2.341805152028776e-38
1.113588 -0.782796 -0.309787 2.341805152028776e-38
1.107398 -0.788191 -0.309290 2.341805152028776e-38
1.101184 -0.793543 -0.308785 2.341805152028776e-38
1.094157 -0.798278 -0.308049 2.341805152028776e-38
1.086322 -0.802388 -0.307087 2.341805152028776e-38
1.081551 -0.808831 -0.307026 2.341805152028776e-38
1.074409 -0.813484 -0.306291 2.341805152028776e-38
1.074215 -0.823422 -0.307543 2.341805152028776e-38
1.092431 -0.847737 -0.314102 2.341805152028776e-38
1.176345 -0.924109 -0.339692 2.341805152028776e-38
1.185303 -0.942690 -0.343805 2.341805152028776e-38
2.129680 -1.223552 -0.572598 2.341805152028776e-38
1.218958 -0.747087 -0.333208 2.341805152028776e-38
1.192329 -0.740180 -0.327056 2.341805152028776e-38
1.179835 -0.741811 -0.324756 2.341805152028776e-38
1.169827 -0.744895 -0.323128 2.341805152028776e-38
1.161444 -0.748969 -0.321955 2.341805152028776e-38
1.155462 -0.754620 -0.321475 2.341805152028776e-38
1.148641 -0.759693 -0.320759 2.341805152028776e-38
1.140182 -0.763632 -0.319582 2.341805152028776e-38
1.134135 -0.769141 -0.319076 2.341805152028776e-38
1.128864 -0.775161 -0.318789 2.341805152028776e-38
1.120316 -0.778984 -0.317611 2.341805152028776e-38
1.114145 -0.784426 -0.317109 2.341805152028776e-38
1.106362 -0.788696 -0.316144 2.341805152028776e-38
1.100147 -0.794045 -0.315625 2.341805152028776e-38
1.092335 -0.798202 -0.314644 2.341805152028776e-38
1.086050 -0.803488 -0.314121 2.341805152028776e-38
1.080492 -0.809348 -0.313829 2.341805152028776e-38
1.074127 -0.814585 -0.313302 2.341805152028776e-38
1.078555 -0.828082 -0.315935 2.341805152028776e-38
1.119007 -0.869760 -0.329192 2.341805152028776e-38
1.201862 -0.945691 -0.355101 2.341805152028776e-38
1.252553 -0.997827 -0.371739 2.341805152028776e-38
2.072453 -1.192485 -0.569808 2.341805152028776e-38
1.212889 -0.744521 -0.339054 2.341805152028776e-38
1.192093 -0.741179 -0.334392 2.341805152028776e-38
1.178784 -0.742292 -0.331808 2.341805152028776e-38
1.170422 -0.746419 -0.330606 2.341805152028776e-38
1.159562 -0.748945 -0.328722 2.341805152028776e-38
1.153583 -0.754587 -0.328228 2.341805152028776e-38
1.145145 -0.758577 -0.327031 2.341805152028776e-38
1.138314 -0.763582 -0.326288 2.341805152028776e-38
1.133075 -0.769630 -0.326000 2.341805152028776e-38
1.125382 -0.774012 -0.325018 2.341805152028776e-38
1.119236 -0.779492 -0.324510 2.341805152028776e-38
1.112269 -0.784370 -0.323761 2.341805152028776e-38
1.104492 -0.788632 -0.322773 2.341805152028776e-38
1.098280 -0.793972 -0.322240 2.341805152028776e-38
1.092829 -0.799844 -0.321929 2.341805152028776e-38
1.087297 -0.805741 -0.321633 2.341805152028776e-38
1.080171 -0.810443 -0.320869 2.341805152028776e-38
1.069153 -0.812150 -0.318942 2.341805152028776e-38
1.079749 -0.830365 -0.323475 2.341805152028776e-38
1.142371 -0.889381 -0.343705 2.341805152028776e-38
1.250909 -0.985952 -0.378013 2.341805152028776e-38
1.361338 -1.086324 -0.413229 2.341805152028776e-38
2.027113 -1.168205 -0.569716 2.341805152028776e-38
1.258357 -0.763770 -0.358356 2.341805152028776e-38
1.208449 -0.742969 -0.345324 2.341805152028776e-38
1.190162 -0.741145 -0.341271 2.341805152028776e-38
1.178512 -0.743287 -0.339103 2.341805152028776e-38
1.169323 -0.746904 -0.337642 2.341805152028776e-38
1.160089 -0.750500 -0.336197 2.341805152028776e-38
1.152478 -0.755082 -0.335216 2.341805152028776e-38
1.144853 -0.759605 -0.334226 2.341805152028776e-38
1.138828 -0.765153 -0.333701 2.341805152028776e-38
1.131170 -0.769567 -0.332695 2.341805152028776e-38
1.124261 -0.774520 -0.331937 2.341805152028776e-38
1.116520 -0.778884 -0.330942 2.341805152028776e-38
1.111148 -0.784871 -0.330648 2.341805152028776e-38
1.104954 -0.790259 -0.330108 2.341805152028776e-38
1.099523 -0.796174 -0.329796 2.341805152028776e-38
1.093260 -0.801501 -0.329247 2.341805152028776e-38
1.086933 -0.806831 -0.328709 2.341805152028776e-38
1.077474 -0.809783 -0.327218 2.341805152028776e-38
1.066471 -0.811476 -0.325248 2.341805152028776e-38
1.082433 -0.833828 -0.331522 2.341805152028776e-38
1.331760 -1.051493 -0.411454 2.341805152028776e-38
1.440063 -1.151130 -0.446909 2.341805152028776e-38
1.475445 -1.194031 -0.459958 2.341805152028776e-38
1.941498 -1.120632 -0.557556 2.341805152028776e-38
1.237216 -0.752153 -0.360035 2.341805152028776e-38
1.200671 -0.739378 -0.350597 2.341805152028776e-38
1.184899 -0.739053 -0.347183 2.341805152028776e-38
1.174914 -0.742203 -0.345450 2.341805152028776e-38
1.167351 -0.746880 -0.344452 2.341805152028776e-38
1.157310 -0.749939 -0.342732 2.341805152028776e-38
1.152142 -0.756105 -0.342451 2.341805152028776e-38
1.145325 -0.761166 -0.341679 2.341805152028776e-38
1.137684 -0.765636 -0.340657 2.341805152028776e-38
1.129218 -0.769509 -0.339391 2.341805152028776e-38
1.123097 -0.775023 -0.338863 2.341805152028776e-38
1.116950 -0.780496 -0.338326 2.341805152028776e-38
1.110778 -0.785926 -0.337781 2.341805152028776e-38
1.103792 -0.790750 -0.336986 2.341805152028776e-38
1.098359 -0.796661 -0.336664 2.341805152028776e-38
1.092855 -0.802586 -0.336353 2.341805152028776e-38
1.084966 -0.806758 -0.335319 2.341805152028776e-38
1.077067 -0.810868 -0.334276 2.341805152028776e-38
1.062982 -0.810209 -0.331300 2.341805152028776e-38
1.081218 -0.834320 -0.338419 2.341805152028776e-38
1.384085 -1.094733 -0.437028 2.341805152028776e-38
1.483577 -1.188003 -0.470543 2.341805152028776e-38
1.531477 -1.241558 -0.487928 2.341805152028776e-38
1.276798 -0.767518 -0.378250 2.341805152028776e-38
1.221893 -0.744062 -0.363215 2.341805152028776e-38
1.195349 -0.737308 -0.356539 2.341805152028776e-38
1.182074 -0.738496 -0.353791 2.341805152028776e-38
1.172096 -0.741642 -0.352023 2.341805152028776e-38
1.165339 -0.746851 -0.351259 2.341805152028776e-38
1.156935 -0.750957 -0.349993 2.341805152028776e-38
1.151762 -0.757123 -0.349703 2.341805152028776e-38
1.144137 -0.761648 -0.348665 2.341805152028776e-38
1.138105 -0.767197 -0.348111 2.341805152028776e-38
1.129614 -0.771106 -0.346829 2.341805152028776e-38
1.123486 -0.776624 -0.346287 2.341805152028776e-38
1.116539 -0.781546 -0.345490 2.341805152028776e-38
1.109572 -0.786417 -0.344685 2.341805152028776e-38
1.103375 -0.791801 -0.344116 2.341805152028776e-38
1.098714 -0.798292 -0.344034 2.341805152028776e-38
1.091624 -0.803091 -0.343230 2.341805152028776e-38
1.083738 -0.807259 -0.342171 2.341805152028776e-38
1.075841 -0.811365 -0.341104 2.341805152028776e-38
1.062541 -0.811291 -0.338312 2.341805152028776e-38
1.084563 -0.838364 -0.346793 2.341805152028776e-38
1.422473 -1.127119 -0.458867 2.341805152028776e-38
1.523836 -1.222434 -0.493767 2.341805152028776e-38
1.583463 -1.286009 -0.515404 2.341805152028776e-38
1.245591 -0.750018 -0.376803 2.341805152028776e-38
1.209054 -0.737478 -0.366991 2.341805152028776e-38
1.189174 -0.734725 -0.362188 2.341805152028776e-38
1.178392 -0.737422 -0.360136 2.341805152028776e-38
1.169222 -0.741099 -0.358596 2.341805152028776e-38
1.164102 -0.747341 -0.358314 2.341805152028776e-38
1.156514 -0.751969 -0.357270 2.341805152028776e-38
1.149720 -0.757072 -0.356469 2.341805152028776e-38
1.142101 -0.761587 -0.355407 2.341805152028776e-38
1.134465 -0.766048 -0.354339 2.341805152028776e-38
1.127564 -0.771057 -0.353541 2.341805152028776e-38
1.121439 -0.776567 -0.352985 2.341805152028776e-38
1.114497 -0.781479 -0.352169 2.341805152028776e-38
1.108325 -0.786902 -0.351594 2.341805152028776e-38
1.102913 -0.792847 -0.351261 2.341805152028776e-38
1.097439 -0.798796 -0.350936 2.341805152028776e-38
1.088792 -0.802442 -0.349612 2.341805152028776e-38
1.081692 -0.807175 -0.348779 2.341805152028776e-38
1.073802 -0.811273 -0.347688 2.341805152028776e-38
1.061287 -0.811778 -0.345088 2.341805152028776e-38
1.572172 -1.263519 -0.520273 2.341805152028776e-38
1.656959 -1.348161 -0.550805 2.341805152028776e-38
1.314136 -0.782429 -0.404444 2.341805152028776e-38
1.229344 -0.741503 -0.379621 2.341805152028776e-38
1.203638 -0.735426 -0.372941 2.341805152028776e-38
1.187085 -0.734681 -0.369065 2.341805152028776e-38
1.178768 -0.738915 -0.367739 2.341805152028776e-38
1.171210 -0.743661 -0.366690 2.341805152028776e-38
1.165263 -0.749394 -0.366142 2.341805152028776e-38
1.156859 -0.753505 -0.364819 2.341805152028776e-38
1.146025 -0.755950 -0.362720 2.341805152028776e-38
1.136006 -0.758837 -0.360869 2.341805152028776e-38
1.129168 -0.763837 -0.360047 2.341805152028776e-38
1.124677 -0.770457 -0.359995 2.341805152028776e-38
1.119354 -0.776504 -0.359679 2.341805152028776e-38
1.113207 -0.781963 -0.359099 2.341805152028776e-38
1.107823 -0.787942 -0.358765 2.341805152028776e-38
1.102406 -0.793889 -0.358422 2.341805152028776e-38
1.097685 -0.800435 -0.358354 2.341805152028776e-38
1.089035 -0.804086 -0.357001 2.341805152028776e-38
1.081155 -0.808245 -0.355894 2.341805152028776e-38
1.073265 -0.812342 -0.354778 2.341805152028776e-38
1.063829 -0.815201 -0.353144 2.341805152028776e-38
1.636064 -1.317322 -0.552759 2.341805152028776e-38
1.704599 -1.389511 -0.578512 2.341805152028776e-38
1.519342 -0.882788 -0.474009 2.341805152028776e-38
1.275319 -0.760644 -0.400532 2.341805152028776e-38
1.215585 -0.734481 -0.383055 2.341805152028776e-38
1.197370 -0.732866 -0.378589 2.341805152028776e-38
1.185777 -0.735141 -0.376199 2.341805152028776e-38
1.178256 -0.739917 -0.375121 2.341805152028776e-38
1.170699 -0.744663 -0.374047 2.341805152028776e-38
1.163937 -0.749873 -0.373224 2.341805152028776e-38
1.153920 -0.752924 -0.371352 2.341805152028776e-38
1.143102 -0.755356 -0.369210 2.341805152028776e-38
1.133899 -0.758766 -0.367580 2.341805152028776e-38
1.128639 -0.764871 -0.367273 2.341805152028776e-38
1.122550 -0.770399 -0.366696 2.341805152028776e-38
1.116436 -0.775885 -0.366110 2.341805152028776e-38
1.111086 -0.781886 -0.365775 2.341805152028776e-38
1.106490 -0.788416 -0.365691 2.341805152028776e-38
1.100264 -0.793822 -0.365091 2.341805152028776e-38
1.093203 -0.798650 -0.364238 2.341805152028776e-38
1.086124 -0.803426 -0.363375 2.341805152028776e-38
1.078255 -0.807571 -0.362244 2.341805152028776e-38
1.072683 -0.813406 -0.361882 2.341805152028776e-38
1.064782 -0.817442 -0.360733 2.341805152028776e-38
1.665796 -1.343811 -0.574413 2.341805152028776e-38
1.731771 -1.414343 -0.599857 2.341805152028776e-38
1.461611 -0.850765 -0.465197 2.341805152028776e-38
1.363708 -0.804255 -0.435475 2.341805152028776e-38
1.262249 -0.754186 -0.404419 2.341805152028776e-38
1.210902 -0.732946 -0.389268 2.341805152028776e-38
1.196009 -0.733324 -0.385777 2.341805152028776e-38
1.184422 -0.735602 -0.383342 2.341805152028776e-38
1.176067 -0.739887 -0.381988 2.341805152028776e-38
1.169329 -0.745141 -0.381155 2.341805152028776e-38
1.163379 -0.750870 -0.380578 2.341805152028776e-38
1.152560 -0.753393 -0.378401 2.341805152028776e-38
1.146576 -0.759015 -0.377806 2.341805152028776e-38
1.137334 -0.762480 -0.376157 2.341805152028776e-38
1.130459 -0.767525 -0.375310 2.341805152028776e-38
1.122768 -0.771974 -0.374188 2.341805152028776e-38
1.116648 -0.777465 -0.373587 2.341805152028776e-38
1.110502 -0.782915 -0.372977 2.341805152028776e-38
1.105115 -0.788884 -0.372622 2.341805152028776e-38
1.098863 -0.794315 -0.372021 2.341805152028776e-38
1.092582 -0.799708 -0.371412 2.341805152028776e-38
1.083952 -0.803335 -0.370001 2.341805152028776e-38
1.074547 -0.806314 -0.368316 2.341805152028776e-38
1.072824 -0.815047 -0.369266 2.341805152028776e-38
1.069481 -0.822643 -0.369690 2.341805152028776e-38
1.734336 -1.401812 -0.610201 2.341805152028776e-38
1.781145 -1.457482 -0.629496 2.341805152028776e-38
1.414845 -0.825042 -0.459260 2.341805152028776e-38
1.330525 -0.786107 -0.433317 2.341805152028776e-38
1.245047 -0.745251 -0.406828 2.341805152028776e-38
1.206188 -0.731406 -0.395449 2.341805152028776e-38
1.192144 -0.732265 -0.392161 2.341805152028776e-38
1.182185 -0.735576 -0.390235 2.341805152028776e-38
1.174652 -0.740365 -0.389122 2.341805152028776e-38
1.167104 -0.745096 -0.387999 2.341805152028776e-38
1.161159 -0.750815 -0.387407 2.341805152028776e-38
1.151158 -0.753857 -0.385456 2.341805152028776e-38
1.144371 -0.758942 -0.384576 2.341805152028776e-38
1.136712 -0.763504 -0.383448 2.341805152028776e-38
1.128242 -0.767465 -0.382042 2.341805152028776e-38
1.122145 -0.772997 -0.381435 2.341805152028776e-38
1.116021 -0.778488 -0.380819 2.341805152028776e-38
1.109872 -0.783938 -0.380193 2.341805152028776e-38
1.104458 -0.789933 -0.379840 2.341805152028776e-38
1.095860 -0.793673 -0.378418 2.341805152028776e-38
1.089586 -0.799051 -0.377794 2.341805152028776e-38
1.080968 -0.802665 -0.376353 2.341805152028776e-38
1.072346 -0.806208 -0.374903 2.341805152028776e-38
1.074449 -0.817848 -0.377211 2.341805152028776e-38
1.079452 -0.831953 -0.380610 2.341805152028776e-38
1.784542 -1.445235 -0.640437 2.341805152028776e-38
1.813797 -1.487203 -0.653906 2.341805152028776e-38
1.376499 -0.804164 -0.455561 2.341805152028776e-38
1.307342 -0.773831 -0.434100 2.341805152028776e-38
1.237754 -0.742244 -0.412358 2.341805152028776e-38
1.205552 -0.732357 -0.402971 2.341805152028776e-38
1.193150 -0.734235 -0.400176 2.341805152028776e-38
1.183988 -0.738087 -0.398498 2.341805152028776e-38
1.174821 -0.741863 -0.396811 2.341805152028776e-38
1.167271 -0.746599 -0.395663 2.341805152028776e-38
1.159705 -0.751277 -0.394506 2.341805152028776e-38
1.151321 -0.755370 -0.393066 2.341805152028776e-38
1.143702 -0.759959 -0.391907 2.341805152028776e-38
1.136841 -0.765058 -0.391030 2.341805152028776e-38
1.129959 -0.770107 -0.390142 2.341805152028776e-38
1.122267 -0.774560 -0.388971 2.341805152028776e-38
1.116925 -0.780606 -0.388614 2.341805152028776e-38
1.108412 -0.784399 -0.387150 2.341805152028776e-38
1.102188 -0.789860 -0.386527 2.341805152028776e-38
1.095934 -0.795284 -0.385897 2.341805152028776e-38
1.089654 -0.800667 -0.385258 2.341805152028776e-38
1.081034 -0.804285 -0.383787 2.341805152028776e-38
1.070106 -0.806096 -0.381486 2.341805152028776e-38
1.080587 -0.824164 -0.386853 2.341805152028776e-38
1.096182 -0.846545 -0.394141 2.341805152028776e-38
1.767226 -1.434082 -0.646743 2.341805152028776e-38
1.794189 -1.474161 -0.659644 2.341805152028776e-38
1.349014 -0.789586 -0.455081 2.341805152028776e-38
1.287497 -0.763509 -0.435759 2.341805152028776e-38
1.227970 -0.737749 -0.416989 2.341805152028776e-38
1.201590 -0.731305 -0.409391 2.341805152028776e-38
1.190816 -0.734207 -0.407120 2.341805152028776e-38
1.181663 -0.738050 -0.405408 2.341805152028776e-38
1.173318 -0.742330 -0.403965 2.341805152028776e-38
1.164154 -0.746024 -0.402234 2.341805152028776e-38
1.158209 -0.751734 -0.401611 2.341805152028776e-38
1.149829 -0.755824 -0.400142 2.341805152028776e-38
1.142188 -0.760439 -0.398975 2.341805152028776e-38
1.135328 -0.765533 -0.398077 2.341805152028776e-38
1.127656 -0.770035 -0.396890 2.341805152028776e-38
1.119970 -0.774478 -0.395694 2.341805152028776e-38
1.113844 -0.779964 -0.395047 2.341805152028776e-38
1.106888 -0.784879 -0.394124 2.341805152028776e-38
1.100659 -0.790340 -0.393488 2.341805152028776e-38
1.092852 -0.794630 -0.392286 2.341805152028776e-38
1.086579 -0.799998 -0.391631 2.341805152028776e-38
1.079511 -0.804750 -0.390688 2.341805152028776e-38
1.067060 -0.805400 -0.387785 2.341805152028776e-38
1.082827 -0.827563 -0.395204 2.341805152028776e-38
1.128740 -0.873472 -0.413750 2.341805152028776e-38
1.755088 -1.427196 -0.654831 2.341805152028776e-38
1.778291 -1.464164 -0.666565 2.341805152028776e-38
1.362105 -0.798766 -0.468242 2.341805152028776e-38
1.286635 -0.764446 -0.443751 2.341805152028776e-38
1.223103 -0.736215 -0.423235 2.341805152028776e-38
1.199216 -0.731264 -0.416365 2.341805152028776e-38
