VERSION .7
FIELDS x y z rgb
SIZE 4 4 4 4
TYPE F F F F
COUNT 1 1 1 1
WIDTH 972
HEIGHT 1
VIEWPOINT 0 0 0 1 0 0 0
POINTS 972
DATA ascii
1.428067 0.094805 0.298462 2.341805152028776e-38
1.426555 0.087672 0.298084 2.341805152028776e-38
1.424031 0.080500 0.297499 2.341805152028776e-38
1.421470 0.073355 0.296912 2.341805152028776e-38
1.420831 0.066328 0.296731 2.341805152028776e-38
1.421135 0.059350 0.296752 2.341805152028776e-38
1.418471 0.052263 0.296158 2.341805152028776e-38
1.416750 0.045235 0.295766 2.341805152028776e-38
1.415974 0.038251 0.295575 2.341805152028776e-38
1.418099 0.031341 0.295996 2.341805152028776e-38
1.419213 0.024394 0.296209 2.341805152028776e-38
1.414420 0.017364 0.295195 2.341805152028776e-38
1.412529 0.010404 0.294791 2.341805152028776e-38
1.410605 0.003463 0.294384 2.341805152028776e-38
1.407668 -0.003456 0.293772 2.341805152028776e-38
1.452772 0.125062 0.296576 2.341805152028776e-38
1.431872 0.116188 0.292230 2.341805152028776e-38
1.426555 0.108713 0.291070 2.341805152028776e-38
1.422177 0.101363 0.290107 2.341805152028776e-38
1.420696 0.094253 0.289740 2.341805152028776e-38
1.419179 0.087160 0.289371 2.341805152028776e-38
1.417627 0.080084 0.288999 2.341805152028776e-38
1.417998 0.073127 0.289024 2.341805152028776e-38
1.416378 0.066076 0.288648 2.341805152028776e-38
1.415702 0.059084 0.288469 2.341805152028776e-38
1.411075 0.051956 0.287489 2.341805152028776e-38
1.409351 0.044968 0.287106 2.341805152028776e-38
1.410531 0.038078 0.287319 2.341805152028776e-38
1.410699 0.031156 0.287330 2.341805152028776e-38
1.407893 0.024183 0.286741 2.341805152028776e-38
1.406034 0.017250 0.286348 2.341805152028776e-38
1.405121 0.010343 0.286153 2.341805152028776e-38
1.404175 0.003445 0.285956 2.341805152028776e-38
1.403195 -0.003443 0.285756 2.341805152028776e-38
1.449304 0.124682 0.288549 2.341805152028776e-38
1.432292 0.116146 0.285085 2.341805152028776e-38
1.425991 0.108599 0.283758 2.341805152028776e-38
1.423565 0.101395 0.283208 2.341805152028776e-38
1.421103 0.094218 0.282655 2.341805152028776e-38
1.421542 0.087248 0.282684 2.341805152028776e-38
1.419989 0.080165 0.282321 2.341805152028776e-38
1.420360 0.073201 0.282345 2.341805152028776e-38
1.416778 0.066052 0.281588 2.341805152028776e-38
1.414141 0.058980 0.281024 2.341805152028776e-38
1.410489 0.051900 0.280262 2.341805152028776e-38
1.410724 0.044983 0.280278 2.341805152028776e-38
1.409944 0.038038 0.280096 2.341805152028776e-38
1.410112 0.031123 0.280107 2.341805152028776e-38
1.408284 0.024174 0.279726 2.341805152028776e-38
1.408385 0.017267 0.279733 2.341805152028776e-38
1.406490 0.010346 0.279348 2.341805152028776e-38
1.405542 0.003446 0.279155 2.341805152028776e-38
1.401619 -0.003437 0.278376 2.341805152028776e-38
1.447749 0.124469 0.280943 2.341805152028776e-38
1.431699 0.116024 0.277753 2.341805152028776e-38
1.426369 0.108558 0.276649 2.341805152028776e-38
1.424919 0.101427 0.276302 2.341805152028776e-38
1.423434 0.094313 0.275952 2.341805152028776e-38
1.421914 0.087215 0.275600 2.341805152028776e-38
1.420359 0.080135 0.275246 2.341805152028776e-38
1.417788 0.073022 0.274700 2.341805152028776e-38
1.419106 0.066118 0.274912 2.341805152028776e-38
1.425295 0.059408 0.276071 2.341805152028776e-38
1.424584 0.052386 0.275898 2.341805152028776e-38
1.415989 0.045122 0.274203 2.341805152028776e-38
1.410302 0.038023 0.273076 2.341805152028776e-38
1.409488 0.031089 0.272896 2.341805152028776e-38
1.407659 0.024148 0.272525 2.341805152028776e-38
1.406777 0.017237 0.272341 2.341805152028776e-38
1.406844 0.010342 0.272346 2.341805152028776e-38
1.404914 0.003443 0.271968 2.341805152028776e-38
1.398041 -0.003426 0.270637 2.341805152028776e-38
1.448113 0.124422 0.273729 2.341805152028776e-38
1.435965 0.116297 0.271360 2.341805152028776e-38
1.430632 0.108815 0.270283 2.341805152028776e-38
1.428201 0.101598 0.269759 2.341805152028776e-38
1.426714 0.094471 0.269418 2.341805152028776e-38
1.425193 0.087362 0.269075 2.341805152028776e-38
1.421674 0.080159 0.268360 2.341805152028776e-38
1.422046 0.073195 0.268383 2.341805152028776e-38
1.425328 0.066367 0.268960 2.341805152028776e-38
1.433487 0.059712 0.270461 2.341805152028776e-38
1.422957 0.052293 0.268440 2.341805152028776e-38
1.418282 0.045167 0.267528 2.341805152028776e-38
1.413572 0.038088 0.266614 2.341805152028776e-38
1.412758 0.031142 0.266439 2.341805152028776e-38
1.411909 0.024206 0.266263 2.341805152028776e-38
1.412010 0.017290 0.266269 2.341805152028776e-38
1.408146 0.010345 0.265532 2.341805152028776e-38
1.404249 0.003439 0.264793 2.341805152028776e-38
1.400318 -0.003429 0.264051 2.341805152028776e-38
1.450401 0.124544 0.266879 2.341805152028776e-38
1.435301 0.116173 0.264029 2.341805152028776e-38
1.429962 0.108698 0.262980 2.341805152028776e-38
1.428509 0.101558 0.262650 2.341805152028776e-38
1.429965 0.094629 0.262859 2.341805152028776e-38
1.425497 0.087328 0.261984 2.341805152028776e-38
1.421975 0.080128 0.261287 2.341805152028776e-38
1.420381 0.073066 0.260948 2.341805152028776e-38
1.423666 0.066249 0.261510 2.341805152028776e-38
1.427901 0.059443 0.262251 2.341805152028776e-38
1.422274 0.052237 0.261184 2.341805152028776e-38
1.416612 0.045087 0.260115 2.341805152028776e-38
1.414847 0.038099 0.259767 2.341805152028776e-38
1.413048 0.031130 0.259416 2.341805152028776e-38
1.411215 0.024179 0.259063 2.341805152028776e-38
1.410331 0.017259 0.258888 2.341805152028776e-38
1.409415 0.010348 0.258712 2.341805152028776e-38
1.407481 0.003445 0.258353 2.341805152028776e-38
1.404530 -0.003437 0.257811 2.341805152028776e-38
1.452657 0.124664 0.260013 2.341805152028776e-38
1.439506 0.116445 0.257590 2.341805152028776e-38
1.436126 0.109103 0.256920 2.341805152028776e-38
1.434673 0.101936 0.256598 2.341805152028776e-38
1.431220 0.094657 0.255924 2.341805152028776e-38
1.428714 0.087474 0.255423 2.341805152028776e-38
1.426172 0.080317 0.254920 2.341805152028776e-38
1.424577 0.073238 0.254591 2.341805152028776e-38
1.424915 0.066268 0.254610 2.341805152028776e-38
1.423252 0.059215 0.254277 2.341805152028776e-38
1.422538 0.052216 0.254117 2.341805152028776e-38
1.418838 0.045131 0.253428 2.341805152028776e-38
1.418056 0.038163 0.253264 2.341805152028776e-38
1.416255 0.031182 0.252923 2.341805152028776e-38
1.417374 0.024270 0.253106 2.341805152028776e-38
1.415506 0.017312 0.252761 2.341805152028776e-38
1.412619 0.010366 0.252237 2.341805152028776e-38
1.410684 0.003451 0.251888 2.341805152028776e-38
1.408715 -0.003446 0.251536 2.341805152028776e-38
1.454881 0.124783 0.253132 2.341805152028776e-38
1.441718 0.116557 0.250774 2.341805152028776e-38
1.437353 0.109134 0.249951 2.341805152028776e-38
1.433933 0.101826 0.249297 2.341805152028776e-38
1.430476 0.094554 0.248641 2.341805152028776e-38
1.428950 0.087438 0.248324 2.341805152028776e-38
1.427389 0.080340 0.248006 2.341805152028776e-38
1.423825 0.073158 0.247343 2.341805152028776e-38
1.423178 0.066150 0.247192 2.341805152028776e-38
1.423482 0.059191 0.247209 2.341805152028776e-38
1.421782 0.052158 0.246883 2.341805152028776e-38
1.419063 0.045112 0.246383 2.341805152028776e-38
1.418280 0.038147 0.246224 2.341805152028776e-38
1.417463 0.031191 0.246063 2.341805152028776e-38
1.416612 0.024244 0.245899 2.341805152028776e-38
1.416713 0.017317 0.245905 2.341805152028776e-38
1.414809 0.010376 0.245567 2.341805152028776e-38
1.410902 0.003449 0.244885 2.341805152028776e-38
1.407946 -0.003442 0.244372 2.341805152028776e-38
1.456089 0.124817 0.246069 2.341805152028776e-38
1.443898 0.116668 0.243943 2.341805152028776e-38
1.438546 0.109163 0.242977 2.341805152028776e-38
1.434139 0.101784 0.242175 2.341805152028776e-38
1.431663 0.094579 0.241703 2.341805152028776e-38
1.430135 0.087462 0.241395 2.341805152028776e-38
1.429557 0.080417 0.241252 2.341805152028776e-38
1.427960 0.073330 0.240940 2.341805152028776e-38
1.426328 0.066260 0.240627 2.341805152028776e-38
1.427617 0.059330 0.240810 2.341805152028776e-38
1.424931 0.052245 0.240326 2.341805152028776e-38
1.420240 0.045125 0.239509 2.341805152028776e-38
1.421427 0.038211 0.239686 2.341805152028776e-38
1.420609 0.031243 0.239529 2.341805152028776e-38
1.422716 0.024335 0.239869 2.341805152028776e-38
1.422817 0.017382 0.239875 2.341805152028776e-38
1.419926 0.010408 0.239380 2.341805152028776e-38
1.413057 0.003452 0.238218 2.341805152028776e-38
1.409112 -0.003443 0.237553 2.341805152028776e-38
1.455296 0.124682 0.238677 2.341805152028776e-38
1.441127 0.116382 0.236290 2.341805152028776e-38
1.437737 0.109043 0.235674 2.341805152028776e-38
1.434310 0.101741 0.235057 2.341805152028776e-38
1.433801 0.094670 0.234921 2.341805152028776e-38
1.432272 0.087546 0.234622 2.341805152028776e-38
1.432679 0.080549 0.234644 2.341805152028776e-38
1.432067 0.073501 0.234503 2.341805152028776e-38
1.429448 0.066369 0.234037 2.341805152028776e-38
1.428766 0.059346 0.233892 2.341805152028776e-38
1.425092 0.052223 0.233261 2.341805152028776e-38
1.423355 0.045199 0.232951 2.341805152028776e-38
1.422571 0.038221 0.232801 2.341805152028776e-38
1.421752 0.031251 0.232648 2.341805152028776e-38
1.422873 0.024324 0.232817 2.341805152028776e-38
1.421988 0.017363 0.232661 2.341805152028776e-38
1.420081 0.010403 0.232342 2.341805152028776e-38
1.414193 0.003453 0.231375 2.341805152028776e-38
1.409259 -0.003441 0.230567 2.341805152028776e-38
1.455451 0.124630 0.231456 2.341805152028776e-38
1.446192 0.116729 0.229922 2.341805152028776e-38
1.443785 0.109445 0.229481 2.341805152028776e-38
1.441343 0.102186 0.229038 2.341805152028776e-38
1.438864 0.094954 0.228594 2.341805152028776e-38
1.438321 0.087869 0.228460 2.341805152028776e-38
1.437743 0.080792 0.228325 2.341805152028776e-38
1.434171 0.073571 0.227718 2.341805152028776e-38
1.430564 0.066386 0.227110 2.341805152028776e-38
1.428895 0.059320 0.226812 2.341805152028776e-38
1.428178 0.052308 0.226670 2.341805152028776e-38
1.427428 0.045305 0.226526 2.341805152028776e-38
1.425655 0.038284 0.226223 2.341805152028776e-38
1.425824 0.031324 0.226232 2.341805152028776e-38
1.425959 0.024364 0.226239 2.341805152028776e-38
1.425072 0.017391 0.226087 2.341805152028776e-38
1.421189 0.010406 0.225464 2.341805152028776e-38
1.417272 0.003459 0.224839 2.341805152028776e-38
1.412334 -0.003447 0.224056 2.341805152028776e-38
1.460493 0.124999 0.224997 2.341805152028776e-38
1.449258 0.116918 0.223206 2.341805152028776e-38
1.444879 0.109472 0.222476 2.341805152028776e-38
1.441448 0.102142 0.221895 2.341805152028776e-38
1.439953 0.094978 0.221615 2.341805152028776e-38
1.437436 0.087771 0.221183 2.341805152028776e-38
1.436857 0.080701 0.221051 2.341805152028776e-38
1.432296 0.073437 0.220311 2.341805152028776e-38
1.434609 0.066540 0.220632 2.341805152028776e-38
1.440839 0.059786 0.221559 2.341805152028776e-38
1.442100 0.052792 0.221725 2.341805152028776e-38
1.433447 0.045473 0.220370 2.341805152028776e-38
1.428710 0.038347 0.219621 2.341805152028776e-38
1.428879 0.031376 0.219629 2.341805152028776e-38
1.429014 0.024404 0.219636 2.341805152028776e-38
1.425162 0.017384 0.219034 2.341805152028776e-38
1.423252 0.010416 0.218734 2.341805152028776e-38
1.420321 0.003465 0.218280 2.341805152028776e-38
1.415379 -0.003453 0.217520 2.341805152028776e-38
1.465508 0.125366 0.218495 2.341805152028776e-38
1.455252 0.117344 0.216908 2.341805152028776e-38
1.447912 0.109648 0.215759 2.341805152028776e-38
1.443492 0.102237 0.215050 2.341805152028776e-38
1.440022 0.094936 0.214485 2.341805152028776e-38
1.438490 0.087792 0.214213 2.341805152028776e-38
1.437911 0.080721 0.214086 2.341805152028776e-38
1.436309 0.073607 0.213810 2.341805152028776e-38
1.446529 0.067060 0.215298 2.341805152028776e-38
1.460672 0.060579 0.217372 2.341805152028776e-38
1.453041 0.053166 0.216209 2.341805152028776e-38
1.439440 0.045641 0.214161 2.341805152028776e-38
1.435689 0.038515 0.213583 2.341805152028776e-38
1.433881 0.031470 0.213297 2.341805152028776e-38
1.432038 0.024444 0.213010 2.341805152028776e-38
1.431151 0.017448 0.212867 2.341805152028776e-38
1.427262 0.010440 0.212282 2.341805152028776e-38
1.424328 0.003473 0.211843 2.341805152028776e-38
1.418393 -0.003458 0.210960 2.341805152028776e-38
1.468521 0.125564 0.211665 2.341805152028776e-38
1.454311 0.117212 0.209561 2.341805152028776e-38
1.447953 0.109599 0.208592 2.341805152028776e-38
1.444517 0.102261 0.208048 2.341805152028776e-38
1.440056 0.094893 0.207359 2.341805152028776e-38
1.437534 0.087692 0.206954 2.341805152028776e-38
1.438930 0.080740 0.207115 2.341805152028776e-38
1.438316 0.073675 0.206991 2.341805152028776e-38
1.450521 0.067213 0.208714 2.341805152028776e-38
1.451818 0.060183 0.208871 2.341805152028776e-38
1.441211 0.052708 0.207319 2.341805152028776e-38
1.437492 0.045558 0.206761 2.341805152028776e-38
1.435717 0.038497 0.206486 2.341805152028776e-38
1.433907 0.031456 0.206210 2.341805152028776e-38
1.433053 0.024449 0.206074 2.341805152028776e-38
1.433154 0.017464 0.206079 2.341805152028776e-38
1.430252 0.010457 0.205655 2.341805152028776e-38
1.425337 0.003474 0.204945 2.341805152028776e-38
1.421378 -0.003464 0.204376 2.341805152028776e-38
1.468541 0.125508 0.204399 2.341805152028776e-38
1.457283 0.117398 0.202778 2.341805152028776e-38
1.451908 0.109848 0.201979 2.341805152028776e-38
1.447483 0.102424 0.201316 2.341805152028776e-38
1.444996 0.095175 0.200925 2.341805152028776e-38
1.444451 0.088074 0.200808 2.341805152028776e-38
1.443872 0.080980 0.200690 2.341805152028776e-38
1.445236 0.073995 0.200844 2.341805152028776e-38
1.445577 0.066953 0.200860 2.341805152028776e-38
1.445884 0.059910 0.200874 2.341805152028776e-38
1.443188 0.052756 0.200474 2.341805152028776e-38
1.441446 0.045662 0.200210 2.341805152028776e-38
1.438680 0.038559 0.199807 2.341805152028776e-38
1.437859 0.031528 0.199677 2.341805152028776e-38
1.437004 0.024506 0.199546 2.341805152028776e-38
1.436116 0.017492 0.199413 2.341805152028776e-38
1.433212 0.010474 0.199004 2.341805152028776e-38
1.429284 0.003482 0.198455 2.341805152028776e-38
1.423341 -0.003467 0.197630 2.341805152028776e-38
1.467538 0.125367 0.197005 2.341805152028776e-38
1.457260 0.117344 0.195573 2.341805152028776e-38
1.453857 0.109947 0.195067 2.341805152028776e-38
1.448440 0.102446 0.194294 2.341805152028776e-38
1.445952 0.095196 0.193918 2.341805152028776e-38
1.445407 0.088093 0.193805 2.341805152028776e-38
1.444826 0.080998 0.193690 2.341805152028776e-38
1.444212 0.073910 0.193574 2.341805152028776e-38
1.443562 0.066831 0.193457 2.341805152028776e-38
1.444859 0.059841 0.193603 2.341805152028776e-38
1.442160 0.052696 0.193217 2.341805152028776e-38
1.439426 0.045578 0.192830 2.341805152028776e-38
1.437649 0.038515 0.192573 2.341805152028776e-38
1.434845 0.031448 0.192183 2.341805152028776e-38
1.436963 0.024494 0.192454 2.341805152028776e-38
1.437064 0.017496 0.192459 2.341805152028776e-38
1.434159 0.010476 0.192063 2.341805152028776e-38
1.430228 0.003482 0.191534 2.341805152028776e-38
1.427254 -0.003475 0.191136 2.341805152028776e-38
1.470451 0.125562 0.190137 2.341805152028776e-38
1.462144 0.117687 0.189012 2.341805152028776e-38
1.456763 0.110120 0.188269 2.341805152028776e-38
1.452332 0.102678 0.187652 2.341805152028776e-38
1.450832 0.095477 0.187417 2.341805152028776e-38
1.449298 0.088293 0.187180 2.341805152028776e-38
1.447728 0.081126 0.186942 2.341805152028776e-38
1.448103 0.074078 0.186958 2.341805152028776e-38
1.447454 0.066982 0.186845 2.341805152028776e-38
1.447761 0.059936 0.186858 2.341805152028776e-38
1.443079 0.052707 0.186230 2.341805152028776e-38
1.442326 0.045650 0.186113 2.341805152028776e-38
1.440547 0.038576 0.185866 2.341805152028776e-38
1.440717 0.031563 0.185873 2.341805152028776e-38
1.440852 0.024550 0.185879 2.341805152028776e-38
1.439963 0.017524 0.185755 2.341805152028776e-38
1.435072 0.010478 0.185118 2.341805152028776e-38
1.433122 0.003488 0.184864 2.341805152028776e-38
1.429155 -0.003478 0.184352 2.341805152028776e-38
1.475309 0.125926 0.183491 2.341805152028776e-38
1.464031 0.117791 0.182040 2.341805152028776e-38
1.458647 0.110217 0.181325 2.341805152028776e-38
1.454213 0.102768 0.180731 2.341805152028776e-38
1.451723 0.095496 0.180381 2.341805152028776e-38
1.449196 0.088250 0.180031 2.341805152028776e-38
1.448616 0.081142 0.179924 2.341805152028776e-38
1.448991 0.074093 0.179940 2.341805152028776e-38
1.449333 0.067042 0.179954 2.341805152028776e-38
1.446666 0.059866 0.179597 2.341805152028776e-38
1.444955 0.052754 0.179362 2.341805152028776e-38
1.443210 0.045660 0.179126 2.341805152028776e-38
1.443414 0.038637 0.179134 2.341805152028776e-38
1.440607 0.031548 0.178772 2.341805152028776e-38
1.440743 0.024538 0.178778 2.341805152028776e-38
1.438860 0.017503 0.178536 2.341805152028776e-38
1.435951 0.010481 0.178169 2.341805152028776e-38
1.434000 0.003489 0.177924 2.341805152028776e-38
1.429038 -0.003477 0.177308 2.341805152028776e-38
1.480138 0.126288 0.176803 2.341805152028776e-38
1.467865 0.118052 0.175290 2.341805152028776e-38
1.459507 0.110238 0.174248 2.341805152028776e-38
1.457052 0.102928 0.173914 2.341805152028776e-38
1.453570 0.095580 0.173460 2.341805152028776e-38
1.452033 0.088388 0.173241 2.341805152028776e-38
1.451452 0.081269 0.173139 2.341805152028776e-38
1.449845 0.074107 0.172917 2.341805152028776e-38
1.449195 0.067009 0.172812 2.341805152028776e-38
1.450495 0.060001 0.172943 2.341805152028776e-38
1.448783 0.052873 0.172717 2.341805152028776e-38
1.445052 0.045700 0.172253 2.341805152028776e-38
1.446249 0.038697 0.172380 2.341805152028776e-38
1.444434 0.031619 0.172150 2.341805152028776e-38
1.443577 0.024577 0.172037 2.341805152028776e-38
1.445665 0.017579 0.172278 2.341805152028776e-38
1.438782 0.010497 0.171452 2.341805152028776e-38
1.434844 0.003489 0.170980 2.341805152028776e-38
1.431866 -0.003482 0.170625 2.341805152028776e-38
1.482956 0.126480 0.169845 2.341805152028776e-38
1.467705 0.117995 0.168053 2.341805152028776e-38
1.462315 0.110409 0.167394 2.341805152028776e-38
1.455895 0.102808 0.166620 2.341805152028776e-38
1.454392 0.095598 0.166411 2.341805152028776e-38
1.452855 0.088405 0.166201 2.341805152028776e-38
1.455250 0.081451 0.166444 2.341805152028776e-38
1.452650 0.074223 0.166117 2.341805152028776e-38
1.451007 0.067067 0.165903 2.341805152028776e-38
1.450322 0.059971 0.165802 2.341805152028776e-38
1.449602 0.052883 0.165699 2.341805152028776e-38
1.448848 0.045803 0.165594 2.341805152028776e-38
1.447067 0.038705 0.165375 2.341805152028776e-38
1.445251 0.031625 0.165154 2.341805152028776e-38
1.446380 0.024615 0.165273 2.341805152028776e-38
1.444495 0.017558 0.165050 2.341805152028776e-38
1.441583 0.010514 0.164712 2.341805152028776e-38
1.438636 0.003497 0.164373 2.341805152028776e-38
1.431681 -0.003480 0.163578 2.341805152028776e-38
1.486733 0.126757 0.162973 2.341805152028776e-38
1.473456 0.118414 0.161474 2.341805152028776e-38
1.467073 0.110728 0.160734 2.341805152028776e-38
1.461642 0.103176 0.160101 2.341805152028776e-38
1.460141 0.095941 0.159901 2.341805152028776e-38
1.462572 0.088964 0.160135 2.341805152028776e-38
1.461001 0.081743 0.159933 2.341805152028776e-38
1.458401 0.074490 0.159621 2.341805152028776e-38
1.454772 0.067217 0.159198 2.341805152028776e-38
1.454087 0.060105 0.159101 2.341805152028776e-38
1.453368 0.053001 0.159002 2.341805152028776e-38
1.450627 0.045842 0.158685 2.341805152028776e-38
1.449838 0.038765 0.158584 2.341805152028776e-38
1.449015 0.031696 0.158481 2.341805152028776e-38
1.449151 0.024653 0.158486 2.341805152028776e-38
1.447265 0.017586 0.158272 2.341805152028776e-38
1.446339 0.010544 0.158166 2.341805152028776e-38
1.442397 0.003505 0.157732 2.341805152028776e-38
1.436433 -0.003491 0.157080 2.341805152028776e-38
1.489486 0.126947 0.155964 2.341805152028776e-38
1.476203 0.118594 0.154532 2.341805152028776e-38
1.470809 0.110971 0.153928 2.341805152028776e-38
1.464384 0.103334 0.153220 2.341805152028776e-38
1.460898 0.095957 0.152821 2.341805152028776e-38
1.460352 0.088798 0.152733 2.341805152028776e-38
1.461758 0.081757 0.152851 2.341805152028776e-38
1.457170 0.074401 0.152345 2.341805152028776e-38
1.455526 0.067229 0.152149 2.341805152028776e-38
1.454841 0.060115 0.152056 2.341805152028776e-38
1.453127 0.052974 0.151858 2.341805152028776e-38
1.450384 0.045819 0.151554 2.341805152028776e-38
1.450588 0.038772 0.151561 2.341805152028776e-38
1.449765 0.031702 0.151463 2.341805152028776e-38
1.448907 0.024641 0.151364 2.341805152028776e-38
1.447020 0.017577 0.151160 2.341805152028776e-38
1.447088 0.010546 0.151162 2.341805152028776e-38
1.444138 0.003508 0.150852 2.341805152028776e-38
1.439165 -0.003496 0.150332 2.341805152028776e-38
1.492207 0.127137 0.148932 2.341805152028776e-38
1.484869 0.119251 0.148160 2.341805152028776e-38
1.477491 0.111439 0.147387 2.341805152028776e-38
1.470072 0.103701 0.146612 2.341805152028776e-38
1.464599 0.096169 0.146034 2.341805152028776e-38
1.464054 0.088994 0.145950 2.341805152028776e-38
1.459500 0.081604 0.145468 2.341805152028776e-38
1.457891 0.074413 0.145283 2.341805152028776e-38
1.458234 0.067331 0.145294 2.341805152028776e-38
1.457548 0.060207 0.145205 2.341805152028776e-38
1.454839 0.053019 0.144917 2.341805152028776e-38
1.450106 0.045795 0.144430 2.341805152028776e-38
1.451305 0.038778 0.144536 2.341805152028776e-38
1.452471 0.031750 0.144640 2.341805152028776e-38
1.451612 0.024679 0.144546 2.341805152028776e-38
1.450720 0.017616 0.144450 2.341805152028776e-38
1.447803 0.010548 0.144155 2.341805152028776e-38
1.444852 0.003509 0.143859 2.341805152028776e-38
1.438881 -0.003494 0.143265 2.341805152028776e-38
1.491918 0.127072 0.141595 2.341805152028776e-38
1.479615 0.118791 0.140390 2.341805152028776e-38
1.473223 0.111082 0.139748 2.341805152028776e-38
1.469772 0.103647 0.139388 2.341805152028776e-38
1.465289 0.096184 0.138932 2.341805152028776e-38
1.464744 0.089008 0.138852 2.341805152028776e-38
1.463169 0.081784 0.138677 2.341805152028776e-38
1.460565 0.074526 0.138406 2.341805152028776e-38
1.460909 0.067434 0.138417 2.341805152028776e-38
1.466192 0.060545 0.138898 2.341805152028776e-38
1.463483 0.053317 0.138624 2.341805152028776e-38
1.454768 0.045928 0.137783 2.341805152028776e-38
1.454973 0.038864 0.137789 2.341805152028776e-38
1.454149 0.031777 0.137701 2.341805152028776e-38
1.452295 0.024682 0.137516 2.341805152028776e-38
1.451402 0.017619 0.137425 2.341805152028776e-38
1.450475 0.010564 0.137333 2.341805152028776e-38
1.445531 0.003509 0.136863 2.341805152028776e-38
1.441549 -0.003500 0.136486 2.341805152028776e-38
1.485639 0.126500 0.133728 2.341805152028776e-38
1.479284 0.118729 0.133121 2.341805152028776e-38
1.474876 0.111173 0.132691 2.341805152028776e-38
1.471423 0.103733 0.132349 2.341805152028776e-38
1.468926 0.096394 0.132095 2.341805152028776e-38
1.472358 0.089444 0.132377 2.341805152028776e-38
1.468796 0.082074 0.132032 2.341805152028776e-38
1.466192 0.074791 0.131775 2.341805152028776e-38
1.470516 0.067857 0.132143 2.341805152028776e-38
1.472818 0.060801 0.132331 2.341805152028776e-38
1.465132 0.053361 0.131624 2.341805152028776e-38
1.461391 0.046123 0.131273 2.341805152028776e-38
1.457615 0.038923 0.130922 2.341805152028776e-38
1.456790 0.031825 0.130837 2.341805152028776e-38
1.455931 0.024737 0.130752 2.341805152028776e-38
1.455038 0.017658 0.130666 2.341805152028776e-38
1.451123 0.010566 0.130310 2.341805152028776e-38
1.451157 0.003522 0.130311 2.341805152028776e-38
1.444185 -0.003505 0.129685 2.341805152028776e-38
1.485276 0.126433 0.126433 2.341805152028776e-38
1.476932 0.118507 0.125689 2.341805152028776e-38
1.472520 0.110964 0.125282 2.341805152028776e-38
1.471052 0.103677 0.125128 2.341805152028776e-38
1.467559 0.096277 0.124803 2.341805152028776e-38
1.468008 0.089154 0.124816 2.341805152028776e-38
1.468423 0.082030 0.124828 2.341805152028776e-38
1.467807 0.074852 0.124754 2.341805152028776e-38
1.471139 0.067867 0.125017 2.341805152028776e-38
1.469459 0.060645 0.124857 2.341805152028776e-38
1.465752 0.053368 0.124526 2.341805152028776e-38
1.461014 0.046098 0.124110 2.341805152028776e-38
1.457235 0.038902 0.123778 2.341805152028776e-38
1.456410 0.031808 0.123698 2.341805152028776e-38
1.454555 0.024706 0.123532 2.341805152028776e-38
1.452664 0.017624 0.123366 2.341805152028776e-38
1.452733 0.010574 0.123368 2.341805152028776e-38
1.449778 0.003518 0.123115 2.341805152028776e-38
1.445792 -0.003508 0.122777 2.341805152028776e-38
1.486864 0.126534 0.119304 2.341805152028776e-38
1.480504 0.118762 0.118762 2.341805152028776e-38
1.478079 0.111353 0.118538 2.341805152028776e-38
1.471640 0.103691 0.117993 2.341805152028776e-38
1.470136 0.096420 0.117847 2.341805152028776e-38
1.471580 0.089347 0.117939 2.341805152028776e-38
1.472991 0.082263 0.118029 2.341805152028776e-38
1.472376 0.075065 0.117960 2.341805152028776e-38
1.471727 0.067876 0.117889 2.341805152028776e-38
1.469050 0.060612 0.117658 2.341805152028776e-38
1.467334 0.053412 0.117506 2.341805152028776e-38
1.464586 0.046198 0.117273 2.341805152028776e-38
1.460807 0.038986 0.116959 2.341805152028776e-38
1.460978 0.031899 0.116964 2.341805152028776e-38
1.459122 0.024777 0.116808 2.341805152028776e-38
1.459225 0.017699 0.116811 2.341805152028776e-38
1.455307 0.010590 0.116494 2.341805152028776e-38
1.451353 0.003520 0.116175 2.341805152028776e-38
1.447366 -0.003511 0.115856 2.341805152028776e-38
1.489411 0.126719 0.112237 2.341805152028776e-38
1.481061 0.118777 0.111578 2.341805152028776e-38
1.476647 0.111218 0.111218 2.341805152028776e-38
1.472194 0.103704 0.110856 2.341805152028776e-38
1.472679 0.096563 0.110868 2.341805152028776e-38
1.474125 0.089479 0.110954 2.341805152028776e-38
1.474541 0.082329 0.110965 2.341805152028776e-38
1.472930 0.075075 0.110825 2.341805152028776e-38
1.468295 0.067700 0.110458 2.341805152028776e-38
1.466613 0.060496 0.110316 2.341805152028776e-38
1.465892 0.053346 0.110248 2.341805152028776e-38
1.463143 0.046141 0.110029 2.341805152028776e-38
1.461356 0.038991 0.109885 2.341805152028776e-38
1.463521 0.031947 0.110039 2.341805152028776e-38
1.463659 0.024848 0.110042 2.341805152028776e-38
1.459774 0.017701 0.109745 2.341805152028776e-38
1.458845 0.010613 0.109672 2.341805152028776e-38
1.454890 0.003528 0.109373 2.341805152028776e-38
1.447910 -0.003511 0.108848 2.341805152028776e-38
1.490931 0.126819 0.105078 2.341805152028776e-38
1.482578 0.118870 0.104462 2.341805152028776e-38
1.477168 0.111231 0.104054 2.341805152028776e-38
1.475699 0.103926 0.103926 2.341805152028776e-38
1.476185 0.096770 0.103938 2.341805152028776e-38
1.478627 0.089732 0.104089 2.341805152028776e-38
1.478048 0.082505 0.104028 2.341805152028776e-38
1.473449 0.075083 0.103687 2.341805152028776e-38
1.468813 0.067708 0.103344 2.341805152028776e-38
1.467130 0.060503 0.103211 2.341805152028776e-38
1.466409 0.053352 0.103148 2.341805152028776e-38
1.463659 0.046147 0.102943 2.341805152028776e-38
1.464862 0.039076 0.103018 2.341805152028776e-38
1.465034 0.031972 0.103022 2.341805152028776e-38
1.466169 0.024885 0.103095 2.341805152028776e-38
1.466272 0.017775 0.103098 2.341805152028776e-38
1.460356 0.010622 0.102678 2.341805152028776e-38
1.455403 0.003529 0.102329 2.341805152028776e-38
1.449418 -0.003514 0.101908 2.341805152028776e-38
1.494405 0.127086 0.098038 2.341805152028776e-38
1.483067 0.118883 0.097268 2.341805152028776e-38
1.478649 0.111318 0.096954 2.341805152028776e-38
1.476185 0.103938 0.096770 2.341805152028776e-38
1.476671 0.096780 0.096780 2.341805152028776e-38
1.478118 0.089681 0.096855 2.341805152028776e-38
1.475546 0.082347 0.096669 2.341805152028776e-38
1.471941 0.074990 0.096416 2.341805152028776e-38
1.470293 0.067762 0.096293 2.341805152028776e-38
1.469607 0.060592 0.096234 2.341805152028776e-38
1.465894 0.053322 0.095979 2.341805152028776e-38
1.464140 0.046152 0.095854 2.341805152028776e-38
1.464346 0.039053 0.095858 2.341805152028776e-38
1.464518 0.031954 0.095862 2.341805152028776e-38
1.464656 0.024854 0.095865 2.341805152028776e-38
1.463761 0.017741 0.095802 2.341805152028776e-38
1.459838 0.010616 0.095542 2.341805152028776e-38
1.455881 0.003529 0.095282 2.341805152028776e-38
1.450892 -0.003517 0.094955 2.341805152028776e-38
1.499835 0.127522 0.091087 2.341805152028776e-38
1.488495 0.119294 0.090374 2.341805152028776e-38
1.485074 0.111779 0.090144 2.341805152028776e-38
1.482610 0.104369 0.089973 2.341805152028776e-38
1.482102 0.097116 0.089923 2.341805152028776e-38
1.480562 0.089811 0.089811 2.341805152028776e-38
1.478986 0.082523 0.089698 2.341805152028776e-38
1.476378 0.075201 0.089525 2.341805152028776e-38
1.473733 0.067906 0.089350 2.341805152028776e-38
1.471053 0.060639 0.089175 2.341805152028776e-38
1.469334 0.053436 0.089060 2.341805152028776e-38
1.469575 0.046314 0.089065 2.341805152028776e-38
1.468784 0.039164 0.089009 2.341805152028776e-38
1.466961 0.032001 0.088891 2.341805152028776e-38
1.467099 0.024890 0.088894 2.341805152028776e-38
1.469198 0.017803 0.089017 2.341805152028776e-38
1.466273 0.010660 0.088837 2.341805152028776e-38
1.459320 0.003537 0.088414 2.341805152028776e-38
1.454329 -0.003524 0.088112 2.341805152028776e-38
1.498269 0.127365 0.083697 2.341805152028776e-38
1.486925 0.119146 0.083041 2.341805152028776e-38
1.485493 0.111789 0.082940 2.341805152028776e-38
1.483028 0.104379 0.082783 2.341805152028776e-38
1.482520 0.097126 0.082737 2.341805152028776e-38
1.481976 0.089880 0.082689 2.341805152028776e-38
1.480400 0.082586 0.082586 2.341805152028776e-38
1.475797 0.075157 0.082315 2.341805152028776e-38
1.474148 0.067913 0.082210 2.341805152028776e-38
1.473462 0.060727 0.082160 2.341805152028776e-38
1.472741 0.053550 0.082110 2.341805152028776e-38
1.470987 0.046350 0.082003 2.341805152028776e-38
1.470196 0.039194 0.081951 2.341805152028776e-38
1.468372 0.032026 0.081843 2.341805152028776e-38
1.469508 0.024927 0.081901 2.341805152028776e-38
1.468613 0.017793 0.081848 2.341805152028776e-38
1.465687 0.010654 0.081682 2.341805152028776e-38
1.460729 0.003539 0.081404 2.341805152028776e-38
1.455737 -0.003527 0.081126 2.341805152028776e-38
1.499651 0.127460 0.076476 2.341805152028776e-38
1.491291 0.119475 0.076030 2.341805152028776e-38
1.486873 0.111874 0.075785 2.341805152028776e-38
1.485404 0.104528 0.075693 2.341805152028776e-38
1.486889 0.097395 0.075752 2.341805152028776e-38
1.485350 0.090069 0.075658 2.341805152028776e-38
1.479785 0.082537 0.075360 2.341805152028776e-38
1.477175 0.075214 0.075214 2.341805152028776e-38
1.476524 0.068010 0.075169 2.341805152028776e-38
1.474841 0.060774 0.075073 2.341805152028776e-38
1.475117 0.053627 0.075078 2.341805152028776e-38
1.475360 0.046479 0.075082 2.341805152028776e-38
1.475567 0.039330 0.075085 2.341805152028776e-38
1.473744 0.032137 0.074987 2.341805152028776e-38
1.474880 0.025013 0.075040 2.341805152028776e-38
1.471988 0.017831 0.074889 2.341805152028776e-38
1.467064 0.010662 0.074636 2.341805152028776e-38
1.463104 0.003544 0.074434 2.341805152028776e-38
1.458110 -0.003532 0.074180 2.341805152028776e-38
1.501995 0.127640 0.069290 2.341805152028776e-38
1.487659 0.119165 0.068610 2.341805152028776e-38
1.485230 0.111732 0.068481 2.341805152028776e-38
1.483760 0.104396 0.068397 2.341805152028776e-38
1.483251 0.097142 0.068359 2.341805152028776e-38
1.484701 0.090015 0.068412 2.341805152028776e-38
1.481130 0.082600 0.068234 2.341805152028776e-38
1.477522 0.075220 0.068056 2.341805152028776e-38
1.478867 0.068108 0.068108 2.341805152028776e-38
1.482173 0.061066 0.068250 2.341805152028776e-38
1.481453 0.053849 0.068209 2.341805152028776e-38
1.477703 0.046546 0.068029 2.341805152028776e-38
1.475914 0.039334 0.067940 2.341805152028776e-38
1.475088 0.032161 0.067896 2.341805152028776e-38
1.474228 0.024998 0.067853 2.341805152028776e-38
1.472334 0.017832 0.067762 2.341805152028776e-38
1.471404 0.010692 0.067717 2.341805152028776e-38
1.464446 0.003547 0.067396 2.341805152028776e-38
1.462448 -0.003542 0.067304 2.341805152028776e-38
1.504304 0.127818 0.062083 2.341805152028776e-38
1.493949 0.119652 0.061639 2.341805152028776e-38
1.488533 0.111965 0.061400 2.341805152028776e-38
1.486067 0.104543 0.061284 2.341805152028776e-38
1.487553 0.097410 0.061332 2.341805152028776e-38
1.489004 0.090264 0.061379 2.341805152028776e-38
1.486431 0.082883 0.061262 2.341805152028776e-38
1.481826 0.075429 0.061061 2.341805152028776e-38
1.489160 0.068572 0.061354 2.341805152028776e-38
1.488476 0.061317 0.061317 2.341805152028776e-38
1.487757 0.054070 0.061280 2.341805152028776e-38
1.482009 0.046675 0.061036 2.341805152028776e-38
1.479222 0.039416 0.060916 2.341805152028776e-38
1.478396 0.032229 0.060877 2.341805152028776e-38
1.479534 0.025085 0.060920 2.341805152028776e-38
1.477640 0.017894 0.060839 2.341805152028776e-38
1.471714 0.010693 0.060593 2.341805152028776e-38
1.468751 0.003557 0.060471 2.341805152028776e-38
1.466753 -0.003552 0.060388 2.341805152028776e-38
1.506578 0.127995 0.054855 2.341805152028776e-38
1.497218 0.119899 0.054500 2.341805152028776e-38
1.490806 0.112122 0.054253 2.341805152028776e-38
1.487343 0.104620 0.054114 2.341805152028776e-38
1.485838 0.097285 0.054047 2.341805152028776e-38
1.485294 0.090027 0.054016 2.341805152028776e-38
1.484715 0.082777 0.053985 2.341805152028776e-38
1.482104 0.075433 0.053881 2.341805152028776e-38
1.487443 0.068484 0.054067 2.341805152028776e-38
1.486759 0.061239 0.054034 2.341805152028776e-38
1.483043 0.053892 0.053892 2.341805152028776e-38
1.480290 0.046615 0.053786 2.341805152028776e-38
1.478500 0.039392 0.053716 2.341805152028776e-38
1.478674 0.032231 0.053718 2.341805152028776e-38
1.478812 0.025069 0.053720 2.341805152028776e-38
1.475918 0.017871 0.053613 2.341805152028776e-38
1.472990 0.010701 0.053504 2.341805152028776e-38
1.471026 0.003562 0.053432 2.341805152028776e-38
1.470026 -0.003560 0.053396 2.341805152028776e-38
1.511805 0.128425 0.047701 2.341805152028776e-38
1.500454 0.120145 0.047330 2.341805152028776e-38
1.495037 0.112428 0.047147 2.341805152028776e-38
1.488585 0.104696 0.046933 2.341805152028776e-38
1.488077 0.097421 0.046906 2.341805152028776e-38
1.491524 0.090395 0.047005 2.341805152028776e-38
1.489948 0.083060 0.046947 2.341805152028776e-38
1.487338 0.075692 0.046857 2.341805152028776e-38
1.487687 0.068488 0.046860 2.341805152028776e-38
1.488001 0.061283 0.046864 2.341805152028776e-38
1.488281 0.054077 0.046867 2.341805152028776e-38
1.485528 0.046775 0.046775 2.341805152028776e-38
1.483739 0.039527 0.046714 2.341805152028776e-38
1.481914 0.032298 0.046653 2.341805152028776e-38
1.481054 0.025105 0.046623 2.341805152028776e-38
1.480158 0.017920 0.046593 2.341805152028776e-38
1.476230 0.010723 0.046467 2.341805152028776e-38
1.472267 0.003565 0.046342 2.341805152028776e-38
1.469268 -0.003558 0.046248 2.341805152028776e-38
1.512019 0.128431 0.040364 2.341805152028776e-38
1.498672 0.119991 0.039997 2.341805152028776e-38
1.495248 0.112433 0.039896 2.341805152028776e-38
1.491786 0.104911 0.039794 2.341805152028776e-38
1.494272 0.097817 0.039851 2.341805152028776e-38
1.493730 0.090520 0.039829 2.341805152028776e-38
1.491156 0.083120 0.039753 2.341805152028776e-38
1.489544 0.075797 0.039703 2.341805152028776e-38
1.489894 0.068583 0.039706 2.341805152028776e-38
1.489210 0.061327 0.039682 2.341805152028776e-38
1.489489 0.054116 0.039685 2.341805152028776e-38
1.486736 0.046808 0.039607 2.341805152028776e-38
1.483947 0.039529 0.039529 2.341805152028776e-38
1.483122 0.032321 0.039504 2.341805152028776e-38
1.483261 0.025140 0.039505 2.341805152028776e-38
1.479367 0.017909 0.039400 2.341805152028776e-38
1.478437 0.010738 0.039374 2.341805152028776e-38
1.472474 0.003565 0.039214 2.341805152028776e-38
1.468475 -0.003555 0.039108 2.341805152028776e-38
1.513192 0.128521 0.033048 2.341805152028776e-38
1.502835 0.120315 0.032813 2.341805152028776e-38
1.501405 0.112887 0.032774 2.341805152028776e-38
1.497945 0.105336 0.032691 2.341805152028776e-38
1.497440 0.098017 0.032672 2.341805152028776e-38
1.496899 0.090705 0.032654 2.341805152028776e-38
1.495324 0.083345 0.032613 2.341805152028776e-38
1.492715 0.075952 0.032551 2.341805152028776e-38
1.493065 0.068724 0.032553 2.341805152028776e-38
1.492381 0.061453 0.032534 2.341805152028776e-38
1.490663 0.054154 0.032492 2.341805152028776e-38
1.486910 0.046810 0.032407 2.341805152028776e-38
1.487120 0.039611 0.032409 2.341805152028776e-38
1.487294 0.032410 0.032410 2.341805152028776e-38
1.487433 0.025208 0.032411 2.341805152028776e-38
1.488538 0.018019 0.032433 2.341805152028776e-38
1.483609 0.010775 0.032325 2.341805152028776e-38
1.478645 0.003580 0.032216 2.341805152028776e-38
1.472646 -0.003565 0.032086 2.341805152028776e-38
1.513335 0.128525 0.025705 2.341805152028776e-38
1.500982 0.120159 0.025488 2.341805152028776e-38
1.498555 0.112666 0.025441 2.341805152028776e-38
1.495094 0.105129 0.025376 2.341805152028776e-38
1.496583 0.097955 0.025396 2.341805152028776e-38
1.492049 0.090406 0.025314 2.341805152028776e-38
1.493468 0.083237 0.025333 2.341805152028776e-38
1.492855 0.075954 0.025318 2.341805152028776e-38
1.493205 0.068726 0.025320 2.341805152028776e-38
1.492521 0.061455 0.025305 2.341805152028776e-38
1.490803 0.054156 0.025273 2.341805152028776e-38
1.489049 0.046875 0.025240 2.341805152028776e-38
1.487259 0.039612 0.025207 2.341805152028776e-38
1.485434 0.032367 0.025175 2.341805152028776e-38
1.489572 0.025243 0.025243 2.341805152028776e-38
1.488677 0.018019 0.025227 2.341805152028776e-38
1.484748 0.010783 0.025159 2.341805152028776e-38
1.478783 0.003580 0.025058 2.341805152028776e-38
1.472784 -0.003565 0.024956 2.341805152028776e-38
1.515434 0.128697 0.018385 2.341805152028776e-38
1.506072 0.120561 0.018267 2.341805152028776e-38
1.501652 0.112894 0.018209 2.341805152028776e-38
1.501184 0.105552 0.018199 2.341805152028776e-38
1.499681 0.098153 0.018176 2.341805152028776e-38
1.498143 0.090771 0.018154 2.341805152028776e-38
1.497566 0.083461 0.018144 2.341805152028776e-38
1.494957 0.076058 0.018109 2.341805152028776e-38
1.496307 0.068866 0.018123 2.341805152028776e-38
1.497621 0.061662 0.018136 2.341805152028776e-38
1.496903 0.054375 0.018125 2.341805152028776e-38
1.492152 0.046970 0.018065 2.341805152028776e-38
1.490362 0.039693 0.018042 2.341805152028776e-38
1.491537 0.032499 0.018055 2.341805152028776e-38
1.493676 0.025312 0.018080 2.341805152028776e-38
1.490782 0.018044 0.018044 2.341805152028776e-38
1.484852 0.010783 0.017971 2.341805152028776e-38
1.482887 0.003589 0.017947 2.341805152028776e-38
1.477887 -0.003577 0.017887 2.341805152028776e-38
1.520487 0.129122 0.011068 2.341805152028776e-38
1.512123 0.121042 0.011004 2.341805152028776e-38
1.508703 0.113420 0.010976 2.341805152028776e-38
1.505244 0.105835 0.010948 2.341805152028776e-38
1.499752 0.098155 0.010906 2.341805152028776e-38
1.499211 0.090833 0.010900 2.341805152028776e-38
1.497637 0.083463 0.010886 2.341805152028776e-38
1.496026 0.076110 0.010873 2.341805152028776e-38
1.495378 0.068821 0.010866 2.341805152028776e-38
1.496693 0.061622 0.010874 2.341805152028776e-38
1.494975 0.054303 0.010861 2.341805152028776e-38
1.491222 0.046939 0.010832 2.341805152028776e-38
1.492432 0.039746 0.010840 2.341805152028776e-38
1.490607 0.032478 0.010826 2.341805152028776e-38
1.489747 0.025244 0.010819 2.341805152028776e-38
1.486852 0.017996 0.010797 2.341805152028776e-38
1.487922 0.010805 0.010805 2.341805152028776e-38
1.485956 0.003597 0.010790 2.341805152028776e-38
1.481957 -0.003587 0.010761 2.341805152028776e-38
1.528494 0.129800 0.003709 2.341805152028776e-38
1.517143 0.121441 0.003680 2.341805152028776e-38
1.514721 0.113871 0.003673 2.341805152028776e-38
1.509270 0.106116 0.003659 2.341805152028776e-38
1.505774 0.098547 0.003650 2.341805152028776e-38
1.504237 0.091136 0.003645 2.341805152028776e-38
1.500667 0.083630 0.003636 2.341805152028776e-38
1.496061 0.076110 0.003624 2.341805152028776e-38
1.488420 0.068499 0.003605 2.341805152028776e-38
1.487735 0.061252 0.003603 2.341805152028776e-38
1.492012 0.054195 0.003613 2.341805152028776e-38
1.496255 0.047097 0.003623 2.341805152028776e-38
1.495465 0.039827 0.003621 2.341805152028776e-38
1.493641 0.032543 0.003616 2.341805152028776e-38
1.493781 0.025312 0.003616 2.341805152028776e-38
1.492886 0.018068 0.003614 2.341805152028776e-38
1.490956 0.010827 0.003609 2.341805152028776e-38
1.487991 0.003602 0.003602 2.341805152028776e-38
1.481991 -0.003587 0.003587 2.341805152028776e-38
1.530487 0.129969 -0.003713 2.341805152028776e-38
1.521130 0.121761 -0.003690 2.341805152028776e-38
1.518710 0.114171 -0.003683 2.341805152028776e-38
1.512262 0.106326 -0.003666 2.341805152028776e-38
1.506772 0.098612 -0.003652 2.341805152028776e-38
1.506234 0.091257 -0.003650 2.341805152028776e-38
1.501666 0.083686 -0.003639 2.341805152028776e-38
1.490069 0.075806 -0.003610 2.341805152028776e-38
1.479430 0.068086 -0.003583 2.341805152028776e-38
1.482739 0.061046 -0.003591 2.341805152028776e-38
1.490013 0.054122 -0.003608 2.341805152028776e-38
1.493256 0.047003 -0.003616 2.341805152028776e-38
1.495465 0.039827 -0.003621 2.341805152028776e-38
1.496640 0.032608 -0.003623 2.341805152028776e-38
1.496781 0.025363 -0.003623 2.341805152028776e-38
1.491886 0.018056 -0.003611 2.341805152028776e-38
1.491956 0.010834 -0.003611 2.341805152028776e-38
1.486991 0.003599 -0.003599 2.341805152028776e-38
1.479991 -0.003582 -0.003582 2.341805152028776e-38
1.533440 0.130222 -0.011162 2.341805152028776e-38
1.525082 0.122079 -0.011098 2.341805152028776e-38
1.519672 0.114245 -0.011056 2.341805152028776e-38
1.513224 0.106396 -0.011006 2.341805152028776e-38
1.511726 0.098938 -0.010993 2.341805152028776e-38
1.509193 0.091437 -0.010972 2.341805152028776e-38
1.505624 0.083908 -0.010944 2.341805152028776e-38
1.497024 0.076161 -0.010880 2.341805152028776e-38
1.485389 0.068361 -0.010794 2.341805152028776e-38
1.488700 0.061293 -0.010816 2.341805152028776e-38
1.493975 0.054267 -0.010853 2.341805152028776e-38
1.497219 0.047128 -0.010876 2.341805152028776e-38
1.501428 0.039986 -0.010905 2.341805152028776e-38
1.502604 0.032739 -0.010913 2.341805152028776e-38
1.500745 0.025430 -0.010899 2.341805152028776e-38
1.499851 0.018153 -0.010892 2.341805152028776e-38
1.495921 0.010863 -0.010863 2.341805152028776e-38
1.491956 0.003611 -0.010834 2.341805152028776e-38
1.487956 -0.003602 -0.010805 2.341805152028776e-38
1.535361 0.130389 -0.018627 2.341805152028776e-38
1.524013 0.121997 -0.018484 2.341805152028776e-38
1.518603 0.114168 -0.018414 2.341805152028776e-38
1.514151 0.106464 -0.018356 2.341805152028776e-38
1.510657 0.098871 -0.018310 2.341805152028776e-38
1.510120 0.091496 -0.018299 2.341805152028776e-38
1.508548 0.084073 -0.018277 2.341805152028776e-38
1.501947 0.076414 -0.018194 2.341805152028776e-38
1.496307 0.068866 -0.018123 2.341805152028776e-38
1.497621 0.061662 -0.018136 2.341805152028776e-38
1.498902 0.054447 -0.018149 2.341805152028776e-38
1.500147 0.047222 -0.018162 2.341805152028776e-38
1.501358 0.039985 -0.018175 2.341805152028776e-38
1.498535 0.032651 -0.018140 2.341805152028776e-38
1.502674 0.025464 -0.018189 2.341805152028776e-38
1.500780 0.018165 -0.018165 2.341805152028776e-38
1.498851 0.010885 -0.018141 2.341805152028776e-38
1.492886 0.003614 -0.018068 2.341805152028776e-38
1.490886 -0.003609 -0.018044 2.341805152028776e-38
1.536249 0.130471 -0.026094 2.341805152028776e-38
1.527892 0.122313 -0.025945 2.341805152028776e-38
1.520490 0.114315 -0.025813 2.341805152028776e-38
1.517036 0.106672 -0.025748 2.341805152028776e-38
1.515539 0.099196 -0.025717 2.341805152028776e-38
1.515004 0.091797 -0.025703 2.341805152028776e-38
1.512436 0.084294 -0.025655 2.341805152028776e-38
1.512826 0.076971 -0.025657 2.341805152028776e-38
1.507188 0.069370 -0.025557 2.341805152028776e-38
1.501512 0.061825 -0.025457 2.341805152028776e-38
1.503792 0.054628 -0.025493 2.341805152028776e-38
1.502040 0.047284 -0.025460 2.341805152028776e-38
1.504251 0.040064 -0.025495 2.341805152028776e-38
1.503427 0.032759 -0.025480 2.341805152028776e-38
1.505568 0.025514 -0.025514 2.341805152028776e-38
1.503674 0.018201 -0.025481 2.341805152028776e-38
1.500745 0.010899 -0.025430 2.341805152028776e-38
1.495781 0.003621 -0.025346 2.341805152028776e-38
1.492781 -0.003614 -0.025295 2.341805152028776e-38
1.540089 0.130805 -0.033636 2.341805152028776e-38
1.527749 0.122310 -0.033357 2.341805152028776e-38
1.523338 0.114536 -0.033253 2.341805152028776e-38
1.518888 0.106809 -0.033148 2.341805152028776e-38
1.517392 0.099323 -0.033108 2.341805152028776e-38
1.515860 0.091854 -0.033068 2.341805152028776e-38
1.517285 0.084569 -0.033092 2.341805152028776e-38
1.513682 0.077019 -0.033008 2.341805152028776e-38
1.509044 0.069459 -0.032902 2.341805152028776e-38
1.505367 0.061988 -0.032817 2.341805152028776e-38
1.506648 0.054735 -0.032841 2.341805152028776e-38
1.505896 0.047408 -0.032821 2.341805152028776e-38
1.506108 0.040116 -0.032822 2.341805152028776e-38
1.504286 0.032780 -0.032780 2.341805152028776e-38
1.505427 0.025513 -0.032803 2.341805152028776e-38
1.504533 0.018212 -0.032782 2.341805152028776e-38
1.503603 0.010920 -0.032761 2.341805152028776e-38
1.498640 0.003628 -0.032652 2.341805152028776e-38
1.494641 -0.003618 -0.032565 2.341805152028776e-38
1.544889 0.131223 -0.041241 2.341805152028776e-38
1.530559 0.122544 -0.040848 2.341805152028776e-38
1.524156 0.114607 -0.040667 2.341805152028776e-38
1.520705 0.106945 -0.040565 2.341805152028776e-38
1.520207 0.099515 -0.040543 2.341805152028776e-38
1.517677 0.091972 -0.040467 2.341805152028776e-38
1.520101 0.084733 -0.040524 2.341805152028776e-38
1.518497 0.077270 -0.040475 2.341805152028776e-38
1.513860 0.069687 -0.040345 2.341805152028776e-38
1.511183 0.062232 -0.040268 2.341805152028776e-38
1.509469 0.054842 -0.040217 2.341805152028776e-38
1.506719 0.047438 -0.040139 2.341805152028776e-38
1.507930 0.040168 -0.040168 2.341805152028776e-38
1.509107 0.032888 -0.040196 2.341805152028776e-38
1.510248 0.025597 -0.040224 2.341805152028776e-38
1.510354 0.018284 -0.040225 2.341805152028776e-38
1.505427 0.010934 -0.040093 2.341805152028776e-38
1.500464 0.003633 -0.039960 2.341805152028776e-38
1.496465 -0.003623 -0.039853 2.341805152028776e-38
1.568573 0.133247 -0.049492 2.341805152028776e-38
1.537317 0.123097 -0.048493 2.341805152028776e-38
1.524938 0.114677 -0.048090 2.341805152028776e-38
1.523481 0.107150 -0.048033 2.341805152028776e-38
1.520990 0.099576 -0.047944 2.341805152028776e-38
1.520457 0.092149 -0.047917 2.341805152028776e-38
1.522881 0.084896 -0.047985 2.341805152028776e-38
1.523274 0.077520 -0.047989 2.341805152028776e-38
1.516642 0.069821 -0.047772 2.341805152028776e-38
1.511969 0.062270 -0.047618 2.341805152028776e-38
1.510255 0.054875 -0.047559 2.341805152028776e-38
1.509504 0.047530 -0.047530 2.341805152028776e-38
1.509717 0.040219 -0.047532 2.341805152028776e-38
1.510893 0.032930 -0.047565 2.341805152028776e-38
1.512034 0.025630 -0.047598 2.341805152028776e-38
1.509142 0.018271 -0.047505 2.341805152028776e-38
1.507214 0.010948 -0.047443 2.341805152028776e-38
1.503251 0.003640 -0.047317 2.341805152028776e-38
1.498254 -0.003628 -0.047160 2.341805152028776e-38
1.612128 0.136962 -0.058698 2.341805152028776e-38
1.537065 0.123090 -0.055950 2.341805152028776e-38
1.516715 0.114071 -0.055195 2.341805152028776e-38
1.519243 0.106864 -0.055274 2.341805152028776e-38
1.518746 0.099440 -0.055244 2.341805152028776e-38
1.522202 0.092265 -0.055359 2.341805152028776e-38
1.525624 0.085058 -0.055473 2.341805152028776e-38
1.521028 0.077415 -0.055296 2.341805152028776e-38
1.517392 0.069863 -0.055155 2.341805152028776e-38
1.513718 0.062349 -0.055014 2.341805152028776e-38
1.515001 0.055054 -0.055054 2.341805152028776e-38
1.512253 0.047621 -0.054948 2.341805152028776e-38
1.513465 0.040324 -0.054987 2.341805152028776e-38
1.511644 0.032950 -0.054916 2.341805152028776e-38
1.511786 0.025628 -0.054918 2.341805152028776e-38
1.510893 0.018294 -0.054883 2.341805152028776e-38
1.508965 0.010962 -0.054811 2.341805152028776e-38
1.504004 0.003642 -0.054630 2.341805152028776e-38
1.501006 -0.003635 -0.054521 2.341805152028776e-38
1.668243 0.133612 -0.068830 2.341805152028776e-38
1.600123 0.120359 -0.066003 2.341805152028776e-38
1.573776 0.110714 -0.064901 2.341805152028776e-38
1.566317 0.102567 -0.064579 2.341805152028776e-38
1.558817 0.094496 -0.064257 2.341805152028776e-38
1.553271 0.086610 -0.064016 2.341805152028776e-38
1.543693 0.078578 -0.063611 2.341805152028776e-38
