VERSION .7
FIELDS x y z rgb
SIZE 4 4 4 4
TYPE F F F F
COUNT 1 1 1 1
WIDTH 950
HEIGHT 1
VIEWPOINT 0 0 0 1 0 0 0
POINTS 950
DATA ascii
0.972161 -0.893247 0.160974 2.341805152028776e-38
0.966001 -0.898462 0.160777 2.341805152028776e-38
0.961211 -0.905046 0.160827 2.341805152028776e-38
0.956361 -0.911622 0.160874 2.341805152028776e-38
0.950038 -0.916794 0.160675 2.341805152028776e-38
0.942978 -0.921230 0.160351 2.341805152028776e-38
0.933782 -0.923520 0.159659 2.341805152028776e-38
1.827122 -1.282944 0.263030 2.341805152028776e-38
1.841527 -1.309033 0.266152 2.341805152028776e-38
1.887129 -1.357956 0.273826 2.341805152028776e-38
1.877639 -1.367688 0.273538 2.341805152028776e-38
1.110696 -0.849556 0.164539 2.341805152028776e-38
1.074292 -0.831731 0.159823 2.341805152028776e-38
1.056850 -0.828271 0.157919 2.341805152028776e-38
1.048813 -0.832055 0.157416 2.341805152028776e-38
1.042318 -0.837016 0.157141 2.341805152028776e-38
1.037342 -0.843184 0.157095 2.341805152028776e-38
1.030029 -0.847430 0.156695 2.341805152028776e-38
1.023421 -0.852306 0.156416 2.341805152028776e-38
1.016016 -0.856512 0.156019 2.341805152028776e-38
1.009354 -0.861305 0.155734 2.341805152028776e-38
1.000416 -0.864103 0.155095 2.341805152028776e-38
0.994472 -0.869440 0.154918 2.341805152028776e-38
0.989947 -0.876098 0.154978 2.341805152028776e-38
0.988316 -0.885407 0.155502 2.341805152028776e-38
0.981459 -0.890059 0.155206 2.341805152028776e-38
0.976045 -0.896005 0.155139 2.341805152028776e-38
0.970594 -0.901918 0.155067 2.341805152028776e-38
0.965071 -0.907838 0.154997 2.341805152028776e-38
0.958767 -0.913066 0.154810 2.341805152028776e-38
0.952434 -0.918251 0.154620 2.341805152028776e-38
0.946074 -0.923394 0.154424 2.341805152028776e-38
0.936861 -0.925702 0.153761 2.341805152028776e-38
1.825358 -1.280693 0.251852 2.341805152028776e-38
1.850326 -1.314252 0.256306 2.341805152028776e-38
1.877386 -1.349883 0.261089 2.341805152028776e-38
1.859103 -1.353126 0.259579 2.341805152028776e-38
1.101376 -0.841751 0.156373 2.341805152028776e-38
1.071279 -0.828733 0.152747 2.341805152028776e-38
1.057766 -0.828305 0.151480 2.341805152028776e-38
1.050505 -0.832710 0.151109 2.341805152028776e-38
1.042455 -0.836437 0.150623 2.341805152028776e-38
1.035939 -0.841351 0.150356 2.341805152028776e-38
1.029402 -0.846219 0.150084 2.341805152028776e-38
1.024339 -0.852349 0.150039 2.341805152028776e-38
1.017692 -0.857200 0.149771 2.341805152028776e-38
1.008756 -0.860068 0.149163 2.341805152028776e-38
0.999822 -0.862861 0.148551 2.341805152028776e-38
0.995382 -0.869501 0.148606 2.341805152028776e-38
0.992357 -0.877468 0.148885 2.341805152028776e-38
0.989240 -0.885466 0.149165 2.341805152028776e-38
0.984590 -0.892125 0.149217 2.341805152028776e-38
0.978431 -0.897416 0.149041 2.341805152028776e-38
0.971515 -0.901991 0.148749 2.341805152028776e-38
0.964554 -0.906542 0.148458 2.341805152028776e-38
0.958977 -0.912451 0.148392 2.341805152028776e-38
0.952647 -0.917637 0.148209 2.341805152028776e-38
0.946291 -0.922780 0.148023 2.341805152028776e-38
0.939907 -0.927880 0.147832 2.341805152028776e-38
1.834110 -1.285859 0.242107 2.341805152028776e-38
1.856641 -1.317742 0.246051 2.341805152028776e-38
1.882093 -1.352249 0.250417 2.341805152028776e-38
1.858964 -1.352009 0.248328 2.341805152028776e-38
1.098321 -0.838769 0.149188 2.341805152028776e-38
1.073727 -0.829989 0.146469 2.341805152028776e-38
1.060210 -0.829561 0.145254 2.341805152028776e-38
1.051381 -0.832745 0.144685 2.341805152028776e-38
1.044104 -0.837098 0.144327 2.341805152028776e-38
1.038355 -0.842648 0.144179 2.341805152028776e-38
1.032577 -0.848160 0.144027 2.341805152028776e-38
1.027512 -0.854297 0.143983 2.341805152028776e-38
1.020092 -0.858526 0.143620 2.341805152028776e-38
1.013415 -0.863342 0.143359 2.341805152028776e-38
1.004458 -0.866161 0.142774 2.341805152028776e-38
0.999999 -0.872828 0.142826 2.341805152028776e-38
0.995475 -0.879495 0.142878 2.341805152028776e-38
0.990866 -0.886185 0.142933 2.341805152028776e-38
0.986212 -0.892852 0.142983 2.341805152028776e-38
0.980048 -0.898153 0.142816 2.341805152028776e-38
0.973856 -0.903412 0.142644 2.341805152028776e-38
0.966895 -0.907966 0.142364 2.341805152028776e-38
0.960588 -0.913203 0.142194 2.341805152028776e-38
0.953537 -0.917708 0.141914 2.341805152028776e-38
0.949316 -0.924937 0.142055 2.341805152028776e-38
0.946457 -0.933546 0.142405 2.341805152028776e-38
1.846070 -1.293305 0.232687 2.341805152028776e-38
1.868580 -1.325257 0.236457 2.341805152028776e-38
1.882701 -1.351711 0.239192 2.341805152028776e-38
1.848299 -1.343286 0.235760 2.341805152028776e-38
1.096012 -0.836389 0.142153 2.341805152028776e-38
1.072204 -0.828202 0.139658 2.341805152028776e-38
1.060268 -0.828977 0.138700 2.341805152028776e-38
1.051439 -0.832161 0.138158 2.341805152028776e-38
1.044163 -0.836514 0.137816 2.341805152028776e-38
1.038417 -0.842063 0.137676 2.341805152028776e-38
1.032643 -0.847575 0.137531 2.341805152028776e-38
1.027591 -0.853700 0.137487 2.341805152028776e-38
1.021695 -0.859208 0.137346 2.341805152028776e-38
1.015013 -0.864033 0.137098 2.341805152028776e-38
1.007556 -0.868160 0.136743 2.341805152028776e-38
1.001585 -0.873537 0.136589 2.341805152028776e-38
0.996322 -0.879543 0.136536 2.341805152028776e-38
0.990972 -0.885575 0.136486 2.341805152028776e-38
0.986322 -0.892242 0.136535 2.341805152028776e-38
0.980895 -0.898214 0.136478 2.341805152028776e-38
0.975431 -0.904154 0.136416 2.341805152028776e-38
0.969200 -0.909387 0.136250 2.341805152028776e-38
0.962883 -0.914637 0.136088 2.341805152028776e-38
0.957256 -0.920534 0.136024 2.341805152028776e-38
0.952306 -0.927091 0.136058 2.341805152028776e-38
0.956522 -0.942700 0.137411 2.341805152028776e-38
1.826188 -1.278489 0.219322 2.341805152028776e-38
1.842310 -1.305723 0.222135 2.341805152028776e-38
1.846857 -1.325063 0.223570 2.341805152028776e-38
1.093659 -0.834007 0.135155 2.341805152028776e-38
1.073790 -0.828845 0.133265 2.341805152028776e-38
1.063423 -0.830842 0.132547 2.341805152028776e-38
1.053800 -0.833426 0.131932 2.341805152028776e-38
1.046514 -0.837793 0.131607 2.341805152028776e-38
1.041534 -0.843982 0.131571 2.341805152028776e-38
1.036516 -0.850143 0.131531 2.341805152028776e-38
1.030693 -0.855643 0.131391 2.341805152028776e-38
1.024023 -0.860529 0.131159 2.341805152028776e-38
1.016573 -0.864722 0.130825 2.341805152028776e-38
1.009110 -0.868857 0.130488 2.341805152028776e-38
1.004636 -0.875550 0.130537 2.341805152028776e-38
0.998624 -0.880905 0.130387 2.341805152028776e-38
0.992522 -0.886287 0.130243 2.341805152028776e-38
0.987869 -0.892963 0.130290 2.341805152028776e-38
0.983171 -0.899616 0.130333 2.341805152028776e-38
0.976969 -0.904892 0.130177 2.341805152028776e-38
0.970739 -0.910126 0.130018 2.341805152028776e-38
0.965142 -0.916067 0.129961 2.341805152028776e-38
0.958789 -0.921288 0.129803 2.341805152028776e-38
0.956688 -0.930629 0.130225 2.341805152028776e-38
1.818451 -1.272233 0.207603 2.341805152028776e-38
1.802938 -1.276978 0.206648 2.341805152028776e-38
1.784195 -1.279266 0.205314 2.341805152028776e-38
1.131907 -0.852165 0.132408 2.341805152028776e-38
1.089679 -0.830415 0.128009 2.341805152028776e-38
1.072974 -0.827662 0.126584 2.341805152028776e-38
1.062618 -0.829644 0.125899 2.341805152028776e-38
1.054562 -0.833455 0.125501 2.341805152028776e-38
1.047275 -0.837825 0.125192 2.341805152028776e-38
1.042294 -0.844019 0.125159 2.341805152028776e-38
1.037276 -0.850183 0.125121 2.341805152028776e-38
1.030690 -0.855047 0.124894 2.341805152028776e-38
1.022502 -0.858646 0.124488 2.341805152028776e-38
1.016580 -0.864119 0.124357 2.341805152028776e-38
1.010628 -0.869552 0.124222 2.341805152028776e-38
1.004648 -0.874946 0.124083 2.341805152028776e-38
0.999386 -0.880958 0.124034 2.341805152028776e-38
0.993293 -0.886334 0.123896 2.341805152028776e-38
0.987162 -0.891679 0.123756 2.341805152028776e-38
0.982473 -0.898327 0.123798 2.341805152028776e-38
0.977008 -0.904274 0.123743 2.341805152028776e-38
0.970055 -0.908827 0.123499 2.341805152028776e-38
0.963752 -0.914069 0.123352 2.341805152028776e-38
0.957411 -0.919280 0.123202 2.341805152028776e-38
0.957467 -0.930694 0.123881 2.341805152028776e-38
1.814723 -1.268828 0.196429 2.341805152028776e-38
1.758573 -1.244776 0.191107 2.341805152028776e-38
1.733532 -1.242166 0.189136 2.341805152028776e-38
1.188796 -0.883570 0.131294 2.341805152028776e-38
1.115946 -0.839612 0.123768 2.341805152028776e-38
1.086447 -0.827425 0.121007 2.341805152028776e-38
1.073696 -0.827692 0.120097 2.341805152028776e-38
1.064121 -0.830290 0.119536 2.341805152028776e-38
1.056850 -0.834717 0.119245 2.341805152028776e-38
1.050331 -0.839722 0.119041 2.341805152028776e-38
1.044565 -0.845306 0.118921 2.341805152028776e-38
1.037999 -0.850221 0.118710 2.341805152028776e-38
1.030644 -0.854452 0.118407 2.341805152028776e-38
1.023229 -0.858681 0.118109 2.341805152028776e-38
1.018824 -0.865448 0.118161 2.341805152028776e-38
1.012864 -0.870894 0.118033 2.341805152028776e-38
1.006124 -0.875646 0.117814 2.341805152028776e-38
1.000858 -0.881666 0.117768 2.341805152028776e-38
0.995511 -0.887704 0.117724 2.341805152028776e-38
0.988632 -0.892394 0.117504 2.341805152028776e-38
0.984675 -0.899722 0.117631 2.341805152028776e-38
0.977739 -0.904329 0.117404 2.341805152028776e-38
0.971512 -0.909566 0.117261 2.341805152028776e-38
0.965213 -0.914807 0.117121 2.341805152028776e-38
0.958866 -0.920026 0.116979 2.341805152028776e-38
0.963209 -0.935614 0.118149 2.341805152028776e-38
1.787239 -1.248868 0.182889 2.341805152028776e-38
1.719786 -1.216599 0.176685 2.341805152028776e-38
1.697328 -1.215505 0.175073 2.341805152028776e-38
1.286268 -0.943837 0.133742 2.341805152028776e-38
1.151945 -0.855661 0.120274 2.341805152028776e-38
1.104704 -0.830651 0.115828 2.341805152028776e-38
1.083964 -0.825035 0.114135 2.341805152028776e-38
1.072801 -0.826504 0.113442 2.341805152028776e-38
1.064802 -0.830322 0.113079 2.341805152028776e-38
1.057537 -0.834742 0.112803 2.341805152028776e-38
1.049460 -0.838507 0.112443 2.341805152028776e-38
1.042151 -0.842832 0.112164 2.341805152028776e-38
1.037140 -0.848994 0.112131 2.341805152028776e-38
1.031326 -0.854491 0.112012 2.341805152028776e-38
1.025445 -0.859995 0.111895 2.341805152028776e-38
1.020273 -0.866129 0.111862 2.341805152028776e-38
1.013552 -0.870934 0.111658 2.341805152028776e-38
1.007563 -0.876343 0.111535 2.341805152028776e-38
1.001545 -0.881713 0.111408 2.341805152028776e-38
0.995462 -0.887083 0.111283 2.341805152028776e-38
0.990066 -0.893107 0.111241 2.341805152028776e-38
0.983897 -0.898426 0.111113 2.341805152028776e-38
0.977700 -0.903704 0.110981 2.341805152028776e-38
0.972203 -0.909622 0.110929 2.341805152028776e-38
0.967358 -0.916228 0.110962 2.341805152028776e-38
0.960283 -0.920770 0.110746 2.341805152028776e-38
0.974640 -0.946083 0.113013 2.341805152028776e-38
1.775190 -1.239751 0.171179 2.341805152028776e-38
1.700429 -1.202232 0.164621 2.341805152028776e-38
1.130217 -0.839040 0.111198 2.341805152028776e-38
1.098987 -0.825880 0.108582 2.341805152028776e-38
1.083820 -0.824455 0.107538 2.341805152028776e-38
1.074236 -0.827139 0.107041 2.341805152028776e-38
1.067018 -0.831577 0.106778 2.341805152028776e-38
1.058969 -0.835383 0.106439 2.341805152028776e-38
1.050107 -0.838533 0.106021 2.341805152028776e-38
1.044347 -0.844115 0.105916 2.341805152028776e-38
1.040100 -0.850921 0.105964 2.341805152028776e-38
1.035042 -0.857071 0.105930 2.341805152028776e-38
1.028389 -0.861947 0.105741 2.341805152028776e-38
1.023965 -0.868743 0.105788 2.341805152028776e-38
1.015715 -0.872270 0.105439 2.341805152028776e-38
1.010469 -0.878346 0.105401 2.341805152028776e-38
1.003690 -0.883073 0.105204 2.341805152028776e-38
0.998351 -0.889110 0.105164 2.341805152028776e-38
0.991461 -0.893816 0.104968 2.341805152028776e-38
0.986024 -0.899816 0.104925 2.341805152028776e-38
0.980551 -0.905782 0.104880 2.341805152028776e-38
0.976498 -0.913078 0.104988 2.341805152028776e-38
0.969468 -0.917646 0.104783 2.341805152028776e-38
0.960943 -0.920820 0.104423 2.341805152028776e-38
0.988194 -0.958633 0.107969 2.341805152028776e-38
1.747529 -1.219787 0.158215 2.341805152028776e-38
1.666332 -1.177503 0.151463 2.341805152028776e-38
1.118835 -0.830142 0.103351 2.341805152028776e-38
1.099604 -0.825898 0.102003 2.341805152028776e-38
1.088400 -0.827494 0.101393 2.341805152028776e-38
1.077215 -0.828988 0.100779 2.341805152028776e-38
1.067624 -0.831605 0.100310 2.341805152028776e-38
1.059580 -0.835404 0.099990 2.341805152028776e-38
1.051496 -0.839180 0.099673 2.341805152028776e-38
1.045731 -0.844770 0.099574 2.341805152028776e-38
1.039937 -0.850321 0.099471 2.341805152028776e-38
1.034882 -0.856469 0.099440 2.341805152028776e-38
1.029768 -0.862616 0.099409 2.341805152028776e-38
1.023819 -0.868130 0.099306 2.341805152028776e-38
1.018598 -0.874253 0.099274 2.341805152028776e-38
1.012588 -0.879692 0.099165 2.341805152028776e-38
1.005800 -0.884431 0.098980 2.341805152028776e-38
0.998969 -0.889147 0.098794 2.341805152028776e-38
0.993560 -0.895191 0.098758 2.341805152028776e-38
0.986641 -0.899858 0.098571 2.341805152028776e-38
0.981167 -0.905828 0.098529 2.341805152028776e-38
0.975658 -0.911765 0.098483 2.341805152028776e-38
0.968642 -0.916319 0.098290 2.341805152028776e-38
0.960123 -0.919488 0.097952 2.341805152028776e-38
1.738596 -1.212950 0.147178 2.341805152028776e-38
1.653327 -1.167736 0.140516 2.341805152028776e-38
1.193430 -0.874343 0.102656 2.341805152028776e-38
1.125831 -0.834910 0.097239 2.341805152028776e-38
1.112149 -0.834899 0.096462 2.341805152028776e-38
1.097711 -0.834154 0.095614 2.341805152028776e-38
1.080158 -0.830835 0.094487 2.341805152028776e-38
1.068979 -0.832243 0.093911 2.341805152028776e-38
1.059370 -0.834807 0.093473 2.341805152028776e-38
1.052847 -0.839825 0.093314 2.341805152028776e-38
1.047854 -0.846049 0.093291 2.341805152028776e-38
1.042825 -0.852243 0.093264 2.341805152028776e-38
1.036990 -0.857772 0.093166 2.341805152028776e-38
1.031874 -0.863923 0.093137 2.341805152028776e-38
1.025917 -0.869449 0.093041 2.341805152028776e-38
1.021445 -0.876234 0.093080 2.341805152028776e-38
1.014669 -0.881035 0.092909 2.341805152028776e-38
1.007872 -0.885787 0.092736 2.341805152028776e-38
1.000294 -0.889843 0.092493 2.341805152028776e-38
0.994140 -0.895227 0.092390 2.341805152028776e-38
0.988694 -0.901242 0.092353 2.341805152028776e-38
0.983212 -0.907223 0.092314 2.341805152028776e-38
0.977693 -0.913172 0.092272 2.341805152028776e-38
0.970675 -0.917731 0.092091 2.341805152028776e-38
0.961425 -0.920222 0.091706 2.341805152028776e-38
1.716499 -1.196978 0.135223 2.341805152028776e-38
1.617426 -1.141851 0.127925 2.341805152028776e-38
1.173875 -0.859623 0.093967 2.341805152028776e-38
1.124777 -0.833734 0.090405 2.341805152028776e-38
1.107106 -0.830722 0.089361 2.341805152028776e-38
1.088715 -0.826929 0.088249 2.341805152028776e-38
1.079901 -0.830248 0.087909 2.341805152028776e-38
1.071872 -0.834105 0.087630 2.341805152028776e-38
1.062256 -0.836677 0.087221 2.341805152028776e-38
1.054941 -0.841090 0.087009 2.341805152028776e-38
1.048388 -0.846073 0.086859 2.341805152028776e-38
1.042585 -0.851638 0.086771 2.341805152028776e-38
1.036753 -0.857166 0.086680 2.341805152028776e-38
1.030117 -0.862026 0.086523 2.341805152028776e-38
1.024171 -0.867541 0.086434 2.341805152028776e-38
1.021226 -0.875615 0.086599 2.341805152028776e-38
1.015961 -0.881722 0.086569 2.341805152028776e-38
1.008409 -0.885822 0.086344 2.341805152028776e-38
1.002327 -0.891200 0.086245 2.341805152028776e-38
0.994680 -0.895261 0.086022 2.341805152028776e-38
0.989972 -0.901950 0.086052 2.341805152028776e-38
0.983019 -0.906586 0.085887 2.341805152028776e-38
0.976775 -0.911852 0.085784 2.341805152028776e-38
0.971945 -0.918455 0.085807 2.341805152028776e-38
0.964131 -0.922332 0.085577 2.341805152028776e-38
1.713976 -1.194704 0.124969 2.341805152028776e-38
1.597749 -1.127476 0.116958 2.341805152028776e-38
1.305536 -0.944082 0.096335 2.341805152028776e-38
1.167149 -0.854334 0.086471 2.341805152028776e-38
1.113256 -0.824832 0.082814 2.341805152028776e-38
1.097229 -0.822950 0.081967 2.341805152028776e-38
1.090008 -0.827549 0.081774 2.341805152028776e-38
1.084354 -0.833308 0.081697 2.341805152028776e-38
1.073942 -0.835353 0.081260 2.341805152028776e-38
1.064322 -0.837929 0.080881 2.341805152028776e-38
1.056218 -0.841731 0.080626 2.341805152028776e-38
1.051214 -0.847975 0.080606 2.341805152028776e-38
1.043853 -0.852294 0.080405 2.341805152028776e-38
1.036478 -0.856557 0.080202 2.341805152028776e-38
1.030616 -0.862048 0.080116 2.341805152028776e-38
1.026193 -0.868856 0.080153 2.341805152028776e-38
1.022484 -0.876292 0.080247 2.341805152028776e-38
1.017968 -0.883061 0.080278 2.341805152028776e-38
1.011158 -0.887831 0.080129 2.341805152028776e-38
1.005069 -0.893218 0.080037 2.341805152028776e-38
0.998151 -0.897963 0.079890 2.341805152028776e-38
0.991951 -0.903328 0.079799 2.341805152028776e-38
0.985722 -0.908652 0.079706 2.341805152028776e-38
0.978735 -0.913252 0.079552 2.341805152028776e-38
0.973178 -0.919175 0.079513 2.341805152028776e-38
0.974738 -0.932028 0.080071 2.341805152028776e-38
1.704020 -1.187292 0.114258 2.341805152028776e-38
1.570656 -1.107919 0.105735 2.341805152028776e-38
1.267229 -0.916020 0.085994 2.341805152028776e-38
1.149095 -0.840789 0.078292 2.341805152028776e-38
1.108104 -0.820682 0.075806 2.341805152028776e-38
1.096091 -0.821765 0.075301 2.341805152028776e-38
1.087286 -0.825149 0.075014 2.341805152028776e-38
1.080854 -0.830284 0.074888 2.341805152028776e-38
1.069669 -0.831695 0.074432 2.341805152028776e-38
1.066352 -0.839179 0.074522 2.341805152028776e-38
1.059801 -0.844238 0.074396 2.341805152028776e-38
1.052450 -0.848621 0.074214 2.341805152028776e-38
1.045084 -0.852948 0.074029 2.341805152028776e-38
1.043863 -0.862305 0.074281 2.341805152028776e-38
1.039503 -0.869115 0.074311 2.341805152028776e-38
1.030465 -0.872105 0.074016 2.341805152028776e-38
1.022187 -0.875668 0.073774 2.341805152028776e-38
1.018430 -0.883088 0.073858 2.341805152028776e-38
1.012369 -0.888519 0.073776 2.341805152028776e-38
1.006280 -0.893910 0.073691 2.341805152028776e-38
0.998616 -0.897991 0.073501 2.341805152028776e-38
0.992415 -0.903359 0.073418 2.341805152028776e-38
0.984717 -0.907332 0.073223 2.341805152028776e-38
0.979198 -0.913288 0.073190 2.341805152028776e-38
0.975095 -0.920582 0.073264 2.341805152028776e-38
1.686619 -1.174745 0.103220 2.341805152028776e-38
1.545122 -1.089511 0.094937 2.341805152028776e-38
1.387598 -0.990502 0.085599 2.341805152028776e-38
1.225610 -0.885616 0.075910 2.341805152028776e-38
1.139855 -0.833728 0.070884 2.341805152028776e-38
1.107723 -0.820102 0.069165 2.341805152028776e-38
1.096513 -0.821776 0.068754 2.341805152028776e-38
1.088501 -0.825767 0.068542 2.341805152028776e-38
1.079689 -0.829084 0.068277 2.341805152028776e-38
1.076395 -0.836616 0.068362 2.341805152028776e-38
1.075404 -0.845991 0.068594 2.341805152028776e-38
1.064910 -0.847986 0.068229 2.341805152028776e-38
1.053648 -0.849266 0.067812 2.341805152028776e-38
1.049373 -0.856125 0.067844 2.341805152028776e-38
1.056605 -0.872502 0.068624 2.341805152028776e-38
1.046055 -0.874263 0.068251 2.341805152028776e-38
1.033940 -0.874706 0.067782 2.341805152028776e-38
1.024886 -0.877640 0.067511 2.341805152028776e-38
1.020363 -0.884422 0.067538 2.341805152028776e-38
1.013543 -0.889206 0.067413 2.341805152028776e-38
1.005955 -0.893276 0.067236 2.341805152028776e-38
0.999042 -0.898018 0.067112 2.341805152028776e-38
0.992841 -0.903388 0.067036 2.341805152028776e-38
0.986611 -0.908716 0.066958 2.341805152028776e-38
0.981084 -0.914683 0.066928 2.341805152028776e-38
0.979878 -0.924729 0.067195 2.341805152028776e-38
1.670784 -1.163345 0.092483 2.341805152028776e-38
1.357169 -0.968462 0.075723 2.341805152028776e-38
1.201734 -0.868078 0.067320 2.341805152028776e-38
1.130569 -0.826665 0.063590 2.341805152028776e-38
1.105695 -0.818333 0.062443 2.341805152028776e-38
1.096097 -0.821187 0.062162 2.341805152028776e-38
1.088884 -0.825779 0.062015 2.341805152028776e-38
1.080862 -0.829706 0.061821 2.341805152028776e-38
1.076776 -0.836632 0.061852 2.341805152028776e-38
1.071075 -0.842304 0.061791 2.341805152028776e-38
1.056697 -0.841157 0.061234 2.341805152028776e-38
1.051697 -0.847402 0.061219 2.341805152028776e-38
1.050530 -0.856775 0.061429 2.341805152028776e-38
1.051600 -0.868071 0.061773 2.341805152028776e-38
1.039540 -0.868521 0.061345 2.341805152028776e-38
1.031276 -0.872144 0.061147 2.341805152028776e-38
1.026030 -0.878310 0.061128 2.341805152028776e-38
1.019238 -0.883137 0.061017 2.341805152028776e-38
1.012426 -0.887913 0.060904 2.341805152028776e-38
1.006339 -0.893303 0.060834 2.341805152028776e-38
0.999430 -0.898041 0.060722 2.341805152028776e-38
0.993967 -0.904085 0.060698 2.341805152028776e-38
0.988468 -0.910097 0.060673 2.341805152028776e-38
0.981470 -0.914712 0.060556 2.341805152028776e-38
0.982446 -0.926817 0.060933 2.341805152028776e-38
1.663904 -1.158221 0.082384 2.341805152028776e-38
1.313660 -0.937136 0.065561 2.341805152028776e-38
1.181042 -0.852879 0.059179 2.341805152028776e-38
1.127691 -0.824317 0.056734 2.341805152028776e-38
1.106037 -0.818346 0.055871 2.341805152028776e-38
1.097241 -0.821795 0.055659 2.341805152028776e-38
1.090024 -0.826393 0.055528 2.341805152028776e-38
1.082790 -0.830935 0.055396 2.341805152028776e-38
1.076329 -0.836034 0.055302 2.341805152028776e-38
1.066705 -0.838615 0.055044 2.341805152028776e-38
1.064859 -0.847392 0.055194 2.341805152028776e-38
1.062934 -0.856192 0.055343 2.341805152028776e-38
1.056295 -0.861211 0.055247 2.341805152028776e-38
1.047322 -0.864273 0.055029 2.341805152028776e-38
1.039117 -0.867901 0.054849 2.341805152028776e-38
1.033149 -0.873451 0.054792 2.341805152028776e-38
1.026377 -0.878329 0.054694 2.341805152028776e-38
1.020340 -0.883811 0.054636 2.341805152028776e-38
1.014274 -0.889252 0.054575 2.341805152028776e-38
1.008179 -0.894653 0.054513 2.341805152028776e-38
1.002752 -0.900733 0.054493 2.341805152028776e-38
0.996533 -0.906125 0.054432 2.341805152028776e-38
0.990286 -0.911475 0.054369 2.341805152028776e-38
0.981818 -0.914739 0.054183 2.341805152028776e-38
0.988612 -0.932330 0.054843 2.341805152028776e-38
1.658605 -1.154238 0.072442 2.341805152028776e-38
1.275776 -0.909871 0.056165 2.341805152028776e-38
1.158676 -0.836508 0.051215 2.341805152028776e-38
1.122351 -0.820200 0.049810 2.341805152028776e-38
1.106341 -0.818357 0.049299 2.341805152028776e-38
1.096748 -0.821204 0.049076 2.341805152028776e-38
1.088737 -0.825196 0.048925 2.341805152028776e-38
1.082302 -0.830338 0.048843 2.341805152028776e-38
1.075845 -0.835434 0.048761 2.341805152028776e-38
1.069365 -0.840482 0.048677 2.341805152028776e-38
1.069859 -0.851136 0.048916 2.341805152028776e-38
1.063242 -0.856205 0.048833 2.341805152028776e-38
1.057378 -0.861857 0.048784 2.341805152028776e-38
1.049942 -0.866197 0.048663 2.341805152028776e-38
1.039423 -0.867918 0.048397 2.341805152028776e-38
1.034984 -0.874757 0.048418 2.341805152028776e-38
1.028964 -0.880295 0.048368 2.341805152028776e-38
1.023670 -0.886446 0.048352 2.341805152028776e-38
1.016836 -0.891248 0.048263 2.341805152028776e-38
1.009982 -0.896001 0.048172 2.341805152028776e-38
1.003063 -0.900752 0.048083 2.341805152028776e-38
0.998323 -0.907490 0.048100 2.341805152028776e-38
0.991332 -0.912173 0.048009 2.341805152028776e-38
0.980665 -0.913400 0.047739 2.341805152028776e-38
0.994015 -0.937154 0.048641 2.341805152028776e-38
1.148417 -0.828911 0.043983 2.341805152028776e-38
1.119392 -0.817850 0.043045 2.341805152028776e-38
1.105000 -0.817178 0.042664 2.341805152028776e-38
1.097016 -0.821211 0.042533 2.341805152028776e-38
1.089801 -0.825808 0.042433 2.341805152028776e-38
1.084155 -0.831564 0.042393 2.341805152028776e-38
1.077690 -0.836671 0.042322 2.341805152028776e-38
1.072775 -0.842965 0.042311 2.341805152028776e-38
1.067001 -0.848657 0.042270 2.341805152028776e-38
1.066627 -0.858723 0.042446 2.341805152028776e-38
1.054548 -0.859344 0.042156 2.341805152028776e-38
1.047127 -0.863668 0.042051 2.341805152028776e-38
1.040458 -0.868574 0.041976 2.341805152028776e-38
1.036019 -0.875415 0.041994 2.341805152028776e-38
1.030754 -0.881608 0.041981 2.341805152028776e-38
1.024696 -0.887116 0.041936 2.341805152028776e-38
1.019361 -0.893242 0.041921 2.341805152028776e-38
1.012495 -0.898009 0.041843 2.341805152028776e-38
1.005566 -0.902771 0.041765 2.341805152028776e-38
1.000075 -0.908852 0.041749 2.341805152028776e-38
0.991604 -0.912192 0.041609 2.341805152028776e-38
0.980935 -0.913420 0.041374 2.341805152028776e-38
1.005928 -0.948145 0.042650 2.341805152028776e-38
1.134061 -0.818387 0.036744 2.341805152028776e-38
1.116393 -0.815498 0.036318 2.341805152028776e-38
1.106031 -0.817781 0.036127 2.341805152028776e-38
1.098846 -0.822415 0.036042 2.341805152028776e-38
1.090827 -0.826418 0.035931 2.341805152028776e-38
1.085178 -0.832181 0.035898 2.341805152028776e-38
1.078709 -0.837293 0.035837 2.341805152028776e-38
1.072217 -0.842358 0.035776 2.341805152028776e-38
1.065667 -0.847421 0.035715 2.341805152028776e-38
1.058293 -0.851838 0.035628 2.341805152028776e-38
1.048579 -0.854303 0.035462 2.341805152028776e-38
1.046585 -0.863044 0.035556 2.341805152028776e-38
1.043757 -0.871149 0.035623 2.341805152028776e-38
1.037014 -0.876071 0.035560 2.341805152028776e-38
1.031746 -0.882270 0.035549 2.341805152028776e-38
1.025684 -0.887784 0.035511 2.341805152028776e-38
1.018842 -0.892598 0.035446 2.341805152028776e-38
1.012726 -0.898025 0.035406 2.341805152028776e-38
1.005800 -0.902785 0.035340 2.341805152028776e-38
0.999568 -0.908195 0.035301 2.341805152028776e-38
0.992572 -0.912885 0.035234 2.341805152028776e-38
0.978971 -0.911394 0.034931 2.341805152028776e-38
1.189444 -0.847796 0.031400 2.341805152028776e-38
1.134254 -0.818392 0.030063 2.341805152028776e-38
1.119813 -0.817863 0.029801 2.341805152028776e-38
1.110241 -0.820759 0.029666 2.341805152028776e-38
1.101440 -0.824217 0.029554 2.341805152028776e-38
1.093409 -0.828235 0.029463 2.341805152028776e-38
1.086955 -0.833404 0.029414 2.341805152028776e-38
1.079689 -0.837914 0.029343 2.341805152028776e-38
1.073980 -0.843602 0.029314 2.341805152028776e-38
1.066642 -0.848050 0.029243 2.341805152028776e-38
1.056148 -0.849966 0.029086 2.341805152028776e-38
1.053421 -0.858101 0.029143 2.341805152028776e-38
1.052948 -0.868141 0.029263 2.341805152028776e-38
1.044717 -0.871801 0.029168 2.341805152028776e-38
1.037972 -0.876725 0.029116 2.341805152028776e-38
1.031180 -0.881631 0.029065 2.341805152028776e-38
1.025122 -0.887141 0.029034 2.341805152028776e-38
1.020539 -0.893927 0.029045 2.341805152028776e-38
1.014415 -0.899364 0.029012 2.341805152028776e-38
1.005995 -0.902797 0.028915 2.341805152028776e-38
1.000503 -0.908880 0.028904 2.341805152028776e-38
0.993502 -0.913576 0.028850 2.341805152028776e-38
0.980627 -0.912771 0.028623 2.341805152028776e-38
1.318761 -0.928392 0.026966 2.341805152028776e-38
1.179020 -0.840256 0.024205 2.341805152028776e-38
1.132787 -0.817226 0.023349 2.341805152028776e-38
1.118351 -0.816688 0.023145 2.341805152028776e-38
1.107177 -0.818388 0.023007 2.341805152028776e-38
1.099992 -0.823023 0.022953 2.341805152028776e-38
1.092765 -0.827636 0.022899 2.341805152028776e-38
1.086315 -0.832802 0.022861 2.341805152028776e-38
1.079842 -0.837920 0.022823 2.341805152028776e-38
1.075705 -0.844844 0.022834 2.341805152028776e-38
1.068361 -0.849300 0.022778 2.341805152028776e-38
1.060196 -0.853106 0.022706 2.341805152028776e-38
1.057450 -0.861265 0.022750 2.341805152028776e-38
1.050016 -0.865605 0.022694 2.341805152028776e-38
1.041800 -0.869247 0.022620 2.341805152028776e-38
1.037363 -0.876088 0.022630 2.341805152028776e-38
1.033614 -0.883588 0.022656 2.341805152028776e-38
1.026788 -0.888458 0.022615 2.341805152028776e-38
1.019941 -0.893278 0.022574 2.341805152028776e-38
1.014570 -0.899375 0.022565 2.341805152028776e-38
1.008383 -0.904810 0.022540 2.341805152028776e-38
1.001399 -0.909562 0.022498 2.341805152028776e-38
0.994394 -0.914263 0.022456 2.341805152028776e-38
0.985173 -0.916870 0.022363 2.341805152028776e-38
1.302541 -0.916882 0.019022 2.341805152028776e-38
1.175068 -0.837357 0.017230 2.341805152028776e-38
1.131280 -0.816059 0.016654 2.341805152028776e-38
1.116851 -0.815512 0.016508 2.341805152028776e-38
1.108899 -0.819580 0.016457 2.341805152028776e-38
1.103310 -0.825421 0.016443 2.341805152028776e-38
1.095271 -0.829451 0.016392 2.341805152028776e-38
1.089604 -0.835239 0.016377 2.341805152028776e-38
1.083906 -0.840989 0.016362 2.341805152028776e-38
1.078179 -0.846702 0.016346 2.341805152028776e-38
1.070042 -0.850549 0.016294 2.341805152028776e-38
1.063428 -0.855618 0.016267 2.341805152028776e-38
1.056790 -0.860639 0.016238 2.341805152028776e-38
1.050903 -0.866247 0.016222 2.341805152028776e-38
1.044986 -0.871816 0.016205 2.341805152028776e-38
1.042063 -0.879964 0.016235 2.341805152028776e-38
1.035251 -0.884894 0.016207 2.341805152028776e-38
1.026905 -0.888465 0.016154 2.341805152028776e-38
1.020810 -0.893944 0.016136 2.341805152028776e-38
1.016182 -0.900709 0.016142 2.341805152028776e-38
1.011477 -0.907488 0.016147 2.341805152028776e-38
1.003736 -0.911587 0.016106 2.341805152028776e-38
0.998927 -0.918332 0.016111 2.341805152028776e-38
0.999930 -0.930502 0.016211 2.341805152028776e-38
1.266650 -0.891558 0.011098 2.341805152028776e-38
1.163747 -0.829234 0.010237 2.341805152028776e-38
1.130546 -0.815476 0.009985 2.341805152028776e-38
1.118543 -0.816694 0.009919 2.341805152028776e-38
1.110584 -0.820772 0.009889 2.341805152028776e-38
1.102586 -0.824824 0.009858 2.341805152028776e-38
1.096145 -0.830057 0.009843 2.341805152028776e-38
1.089681 -0.835242 0.009826 2.341805152028776e-38
1.083983 -0.840993 0.009817 2.341805152028776e-38
1.077469 -0.846088 0.009800 2.341805152028776e-38
1.069337 -0.849929 0.009769 2.341805152028776e-38
1.061946 -0.854368 0.009746 2.341805152028776e-38
1.056092 -0.860011 0.009736 2.341805152028776e-38
1.049436 -0.864979 0.009719 2.341805152028776e-38
1.044295 -0.871180 0.009716 2.341805152028776e-38
1.041377 -0.879322 0.009734 2.341805152028776e-38
1.035329 -0.884898 0.009724 2.341805152028776e-38
1.030007 -0.891086 0.009721 2.341805152028776e-38
1.023896 -0.896584 0.009710 2.341805152028776e-38
1.017756 -0.902041 0.009699 2.341805152028776e-38
1.011556 -0.907492 0.009689 2.341805152028776e-38
1.003074 -0.910919 0.009656 2.341805152028776e-38
1.001950 -0.921044 0.009695 2.341805152028776e-38
1.019774 -0.948900 0.009919 2.341805152028776e-38
1.663590 -1.625568 0.016531 2.341805152028776e-38
1.214357 -0.854722 0.003547 2.341805152028776e-38
1.154014 -0.822271 0.003384 2.341805152028776e-38
1.129774 -0.814892 0.003326 2.341805152028776e-38
1.118581 -0.816695 0.003306 2.341805152028776e-38
1.111426 -0.821368 0.003299 2.341805152028776e-38
1.103426 -0.825424 0.003289 2.341805152028776e-38
1.096184 -0.830058 0.003281 2.341805152028776e-38
1.092100 -0.837068 0.003283 2.341805152028776e-38
1.084811 -0.841607 0.003275 2.341805152028776e-38
1.076721 -0.845472 0.003264 2.341805152028776e-38
1.066244 -0.847442 0.003247 2.341805152028776e-38
1.059647 -0.852489 0.003241 2.341805152028776e-38
1.055355 -0.859381 0.003243 2.341805152028776e-38
1.048703 -0.864345 0.003237 2.341805152028776e-38
1.046637 -0.873104 0.003246 2.341805152028776e-38
1.045236 -0.882550 0.003257 2.341805152028776e-38
1.037648 -0.886849 0.003249 2.341805152028776e-38
1.030802 -0.891743 0.003243 2.341805152028776e-38
1.023183 -0.895928 0.003234 2.341805152028776e-38
1.017795 -0.902044 0.003233 2.341805152028776e-38
1.010850 -0.906827 0.003227 2.341805152028776e-38
1.003113 -0.910922 0.003219 2.341805152028776e-38
1.009352 -0.927814 0.003255 2.341805152028776e-38
1.690837 -1.652130 0.005600 2.341805152028776e-38
1.261944 -0.877412 -0.003671 2.341805152028776e-38
1.177558 -0.828822 -0.003439 2.341805152028776e-38
1.144241 -0.815308 -0.003355 2.341805152028776e-38
1.128152 -0.813722 -0.003321 2.341805152028776e-38
1.118581 -0.816695 -0.003306 2.341805152028776e-38
1.111426 -0.821368 -0.003299 2.341805152028776e-38
1.105027 -0.826622 -0.003293 2.341805152028776e-38
1.097778 -0.831265 -0.003286 2.341805152028776e-38
1.092894 -0.837676 -0.003285 2.341805152028776e-38
1.084021 -0.840994 -0.003272 2.341805152028776e-38
1.073575 -0.843002 -0.003255 2.341805152028776e-38
1.064678 -0.846197 -0.003242 2.341805152028776e-38
1.061206 -0.853742 -0.003246 2.341805152028776e-38
1.056906 -0.860644 -0.003248 2.341805152028776e-38
1.050246 -0.865617 -0.003242 2.341805152028776e-38
1.045869 -0.872463 -0.003243 2.341805152028776e-38
1.040652 -0.878679 -0.003242 2.341805152028776e-38
1.033087 -0.882951 -0.003234 2.341805152028776e-38
1.028533 -0.889780 -0.003236 2.341805152028776e-38
1.022430 -0.895269 -0.003232 2.341805152028776e-38
1.017795 -0.902044 -0.003233 2.341805152028776e-38
1.013084 -0.908830 -0.003234 2.341805152028776e-38
1.003113 -0.910922 -0.003219 2.341805152028776e-38
1.024812 -0.942026 -0.003305 2.341805152028776e-38
1.725169 -1.685676 -0.005714 2.341805152028776e-38
1.227420 -0.853435 -0.010713 2.341805152028776e-38
1.161981 -0.817885 -0.010181 2.341805152028776e-38
1.141759 -0.813566 -0.010044 2.341805152028776e-38
1.129735 -0.814891 -0.009978 2.341805152028776e-38
1.120966 -0.818463 -0.009941 2.341805152028776e-38
1.113801 -0.823149 -0.009917 2.341805152028776e-38
1.106590 -0.827819 -0.009894 2.341805152028776e-38
1.100928 -0.833679 -0.009886 2.341805152028776e-38
1.093649 -0.838283 -0.009862 2.341805152028776e-38
1.085563 -0.842218 -0.009831 2.341805152028776e-38
1.077469 -0.846088 -0.009800 2.341805152028776e-38
1.073251 -0.853040 -0.009805 2.341805152028776e-38
1.068179 -0.859382 -0.009803 2.341805152028776e-38
1.062295 -0.865063 -0.009793 2.341805152028776e-38
1.052523 -0.867523 -0.009747 2.341805152028776e-38
1.046598 -0.873102 -0.009737 2.341805152028776e-38
1.041377 -0.879322 -0.009734 2.341805152028776e-38
1.034569 -0.884248 -0.009717 2.341805152028776e-38
1.030763 -0.891741 -0.009728 2.341805152028776e-38
1.025401 -0.897902 -0.009725 2.341805152028776e-38
1.022246 -0.906021 -0.009742 2.341805152028776e-38
1.014533 -0.910163 -0.009717 2.341805152028776e-38
1.005295 -0.912936 -0.009678 2.341805152028776e-38
1.761575 -1.721313 -0.017505 2.341805152028776e-38
1.198604 -0.833453 -0.017436 2.341805152028776e-38
1.151273 -0.810402 -0.016813 2.341805152028776e-38
1.137610 -0.810663 -0.016680 2.341805152028776e-38
1.128036 -0.813719 -0.016607 2.341805152028776e-38
1.120081 -0.817871 -0.016556 2.341805152028776e-38
1.114528 -0.823741 -0.016541 2.341805152028776e-38
1.108114 -0.829015 -0.016514 2.341805152028776e-38
1.101648 -0.834280 -0.016488 2.341805152028776e-38
1.095159 -0.839497 -0.016461 2.341805152028776e-38
1.087067 -0.843441 -0.016409 2.341805152028776e-38
1.081325 -0.849172 -0.016393 2.341805152028776e-38
1.076304 -0.855526 -0.016389 2.341805152028776e-38
1.068881 -0.860006 -0.016350 2.341805152028776e-38
1.061442 -0.864428 -0.016310 2.341805152028776e-38
1.055532 -0.870063 -0.016293 2.341805152028776e-38
1.049592 -0.875660 -0.016276 2.341805152028776e-38
1.041299 -0.879319 -0.016224 2.341805152028776e-38
1.035251 -0.884894 -0.016207 2.341805152028776e-38
1.030686 -0.891736 -0.016213 2.341805152028776e-38
1.024571 -0.897238 -0.016196 2.341805152028776e-38
1.021420 -0.905352 -0.016225 2.341805152028776e-38
1.013710 -0.909491 -0.016183 2.341805152028776e-38
1.006697 -0.914276 -0.016153 2.341805152028776e-38
1.715119 -1.655604 -0.028253 2.341805152028776e-38
1.770729 -1.730386 -0.029329 2.341805152028776e-38
1.195201 -0.831166 -0.024344 2.341805152028776e-38
1.150339 -0.809825 -0.023522 2.341805152028776e-38
1.136680 -0.810081 -0.023336 2.341805152028776e-38
1.127921 -0.813716 -0.023249 2.341805152028776e-38
1.122389 -0.819636 -0.023229 2.341805152028776e-38
1.116826 -0.825520 -0.023207 2.341805152028776e-38
1.110400 -0.830810 -0.023170 2.341805152028776e-38
1.102330 -0.834880 -0.023099 2.341805152028776e-38
1.095837 -0.840101 -0.023062 2.341805152028776e-38
1.087741 -0.844050 -0.022990 2.341805152028776e-38
1.081209 -0.849167 -0.022950 2.341805152028776e-38
1.074623 -0.854278 -0.022912 2.341805152028776e-38
1.071102 -0.861882 -0.022940 2.341805152028776e-38
1.064427 -0.866948 -0.022901 2.341805152028776e-38
1.058502 -0.872601 -0.022877 2.341805152028776e-38
1.051012 -0.876934 -0.022820 2.341805152028776e-38
1.041947 -0.879958 -0.022730 2.341805152028776e-38
1.033614 -0.883588 -0.022656 2.341805152028776e-38
1.029813 -0.891075 -0.022682 2.341805152028776e-38
1.027463 -0.899866 -0.022740 2.341805152028776e-38
1.022800 -0.906671 -0.022748 2.341805152028776e-38
1.017313 -0.912823 -0.022739 2.341805152028776e-38
1.013241 -0.920318 -0.022764 2.341805152028776e-38
1.738650 -1.678505 -0.040101 2.341805152028776e-38
1.789105 -1.748538 -0.041491 2.341805152028776e-38
1.182731 -0.822599 -0.030977 2.341805152028776e-38
1.147731 -0.808096 -0.030178 2.341805152028776e-38
1.136525 -0.810078 -0.030003 2.341805152028776e-38
1.128578 -0.814297 -0.029913 2.341805152028776e-38
1.123850 -0.820811 -0.029908 2.341805152028776e-38
1.117476 -0.826108 -0.029859 2.341805152028776e-38
1.109444 -0.830207 -0.029768 2.341805152028776e-38
1.102972 -0.835479 -0.029721 2.341805152028776e-38
1.096476 -0.840704 -0.029672 2.341805152028776e-38
1.088377 -0.844656 -0.029579 2.341805152028776e-38
1.081056 -0.849160 -0.029507 2.341805152028776e-38
1.075250 -0.854894 -0.029479 2.341805152028776e-38
1.069389 -0.860622 -0.029451 2.341805152028776e-38
1.065048 -0.867572 -0.029465 2.341805152028776e-38
1.059890 -0.873865 -0.029456 2.341805152028776e-38
1.051625 -0.877566 -0.029361 2.341805152028776e-38
1.041027 -0.879306 -0.029202 2.341805152028776e-38
1.034979 -0.884879 -0.029172 2.341805152028776e-38
1.031170 -0.892375 -0.029205 2.341805152028776e-38
1.026555 -0.899197 -0.029216 2.341805152028776e-38
1.018904 -0.903344 -0.029140 2.341805152028776e-38
1.015668 -0.911478 -0.029193 2.341805152028776e-38
1.027143 -0.933081 -0.029674 2.341805152028776e-38
1.663260 -1.586367 -0.049063 2.341805152028776e-38
1.756349 -1.695844 -0.052091 2.341805152028776e-38
1.798823 -1.758298 -0.053643 2.341805152028776e-38
1.178431 -0.819740 -0.037729 2.341805152028776e-38
1.146720 -0.807517 -0.036858 2.341805152028776e-38
1.137147 -0.810654 -0.036696 2.341805152028776e-38
1.129197 -0.814877 -0.036586 2.341805152028776e-38
1.123658 -0.820805 -0.036554 2.341805152028776e-38
1.117284 -0.826101 -0.036494 2.341805152028776e-38
1.111652 -0.831999 -0.036462 2.341805152028776e-38
1.104372 -0.836681 -0.036377 2.341805152028776e-38
1.097076 -0.841306 -0.036292 2.341805152028776e-38
1.088974 -0.845261 -0.036178 2.341805152028776e-38
1.081650 -0.849769 -0.036091 2.341805152028776e-38
1.075838 -0.855510 -0.036056 2.341805152028776e-38
1.071531 -0.862494 -0.036074 2.341805152028776e-38
1.066404 -0.868826 -0.036064 2.341805152028776e-38
1.061239 -0.875127 -0.036054 2.341805152028776e-38
1.052967 -0.878836 -0.035938 2.341805152028776e-38
1.044651 -0.882522 -0.035822 2.341805152028776e-38
1.039343 -0.888767 -0.035811 2.341805152028776e-38
1.031731 -0.893018 -0.035721 2.341805152028776e-38
1.025609 -0.898526 -0.035682 2.341805152028776e-38
1.021701 -0.905984 -0.035720 2.341805152028776e-38
1.020679 -0.916140 -0.035863 2.341805152028776e-38
1.697645 -1.619464 -0.061217 2.341805152028776e-38
1.776848 -1.715955 -0.064422 2.341805152028776e-38
1.807750 -1.767353 -0.065901 2.341805152028776e-38
1.169171 -0.813454 -0.044246 2.341805152028776e-38
1.146487 -0.807514 -0.043559 2.341805152028776e-38
1.137729 -0.811230 -0.043399 2.341805152028776e-38
1.128155 -0.814286 -0.043207 2.341805152028776e-38
1.123427 -0.820798 -0.043200 2.341805152028776e-38
1.117054 -0.826093 -0.043129 2.341805152028776e-38
1.112219 -0.832592 -0.043122 2.341805152028776e-38
1.104140 -0.836673 -0.042991 2.341805152028776e-38
1.096845 -0.841297 -0.042890 2.341805152028776e-38
1.091112 -0.847091 -0.042849 2.341805152028776e-38
1.084563 -0.852228 -0.042776 2.341805152028776e-38
1.077952 -0.857368 -0.042704 2.341805152028776e-38
1.073634 -0.864365 -0.042725 2.341805152028776e-38
1.067720 -0.870078 -0.042683 2.341805152028776e-38
1.061006 -0.875115 -0.042609 2.341805152028776e-38
1.053502 -0.879463 -0.042502 2.341805152028776e-38
1.047471 -0.885091 -0.042458 2.341805152028776e-38
1.042907 -0.892003 -0.042476 2.341805152028776e-38
1.036787 -0.897583 -0.042431 2.341805152028776e-38
1.030638 -0.903123 -0.042385 2.341805152028776e-38
1.022216 -0.906631 -0.042244 2.341805152028776e-38
1.027879 -0.922803 -0.042692 2.341805152028776e-38
1.729777 -1.650484 -0.073733 2.341805152028776e-38
1.797265 -1.736060 -0.077027 2.341805152028776e-38
1.823746 -1.783390 -0.078590 2.341805152028776e-38
1.166438 -0.811734 -0.050946 2.341805152028776e-38
1.149484 -0.809812 -0.050403 2.341805152028776e-38
1.138272 -0.811804 -0.050111 2.341805152028776e-38
1.131127 -0.816619 -0.049997 2.341805152028776e-38
1.125579 -0.822558 -0.049953 2.341805152028776e-38
1.119196 -0.827866 -0.049871 2.341805152028776e-38
1.114347 -0.834382 -0.049863 2.341805152028776e-38
1.106258 -0.838476 -0.049712 2.341805152028776e-38
1.101332 -0.844937 -0.049702 2.341805152028776e-38
1.093999 -0.849531 -0.049584 2.341805152028776e-38
1.085865 -0.853451 -0.049428 2.341805152028776e-38
1.080026 -0.859224 -0.049381 2.341805152028776e-38
1.075696 -0.866234 -0.049405 2.341805152028776e-38
1.068997 -0.871328 -0.049320 2.341805152028776e-38
1.061505 -0.875737 -0.049199 2.341805152028776e-38
1.054765 -0.880729 -0.049111 2.341805152028776e-38
1.050250 -0.887659 -0.049132 2.341805152028776e-38
1.043392 -0.892638 -0.049046 2.341805152028776e-38
1.038024 -0.898876 -0.049030 2.341805152028776e-38
1.028861 -0.901788 -0.048833 2.341805152028776e-38
1.023438 -0.907938 -0.048814 2.341805152028776e-38
1.041728 -0.935473 -0.049936 2.341805152028776e-38
1.769775 -1.689088 -0.087066 2.341805152028776e-38
1.814005 -1.752686 -0.089728 2.341805152028776e-38
1.835372 -1.795226 -0.091283 2.341805152028776e-38
1.159567 -0.807159 -0.057413 2.341805152028776e-38
1.145906 -0.807505 -0.056961 2.341805152028776e-38
1.137963 -0.811798 -0.056792 2.341805152028776e-38
1.130819 -0.816611 -0.056663 2.341805152028776e-38
1.126077 -0.823138 -0.056653 2.341805152028776e-38
1.119691 -0.828449 -0.056561 2.341805152028776e-38
1.114836 -0.834973 -0.056552 2.341805152028776e-38
1.107540 -0.839674 -0.056421 2.341805152028776e-38
1.099436 -0.843709 -0.056247 2.341805152028776e-38
1.092111 -0.848292 -0.056113 2.341805152028776e-38
1.086342 -0.854054 -0.056058 2.341805152028776e-38
1.080496 -0.859835 -0.056005 2.341805152028776e-38
1.076162 -0.866847 -0.056032 2.341805152028776e-38
1.069460 -0.871944 -0.055936 2.341805152028776e-38
1.062736 -0.876993 -0.055838 2.341805152028776e-38
1.055222 -0.881352 -0.055699 2.341805152028776e-38
1.049935 -0.887643 -0.055682 2.341805152028776e-38
1.043079 -0.892621 -0.055584 2.341805152028776e-38
1.037711 -0.898857 -0.055566 2.341805152028776e-38
1.030051 -0.903085 -0.055424 2.341805152028776e-38
1.022379 -0.907254 -0.055281 2.341805152028776e-38
1.056272 -0.948808 -0.057401 2.341805152028776e-38
1.719167 -1.621294 -0.095370 2.341805152028776e-38
1.791610 -1.710436 -0.099922 2.341805152028776e-38
1.832817 -1.771389 -0.102777 2.341805152028776e-38
1.844060 -1.804261 -0.103974 2.341805152028776e-38
1.155940 -0.804866 -0.063985 2.341805152028776e-38
1.145557 -0.807499 -0.063662 2.341805152028776e-38
1.138428 -0.812371 -0.063519 2.341805152028776e-38
1.131282 -0.817187 -0.063374 2.341805152028776e-38
1.125730 -0.823127 -0.063317 2.341805152028776e-38
1.120148 -0.829030 -0.063259 2.341805152028776e-38
1.113685 -0.834365 -0.063159 2.341805152028776e-38
1.103211 -0.836644 -0.062831 2.341805152028776e-38
1.096710 -0.841872 -0.062728 2.341805152028776e-38
1.092553 -0.848891 -0.062758 2.341805152028776e-38
1.089921 -0.857125 -0.062878 2.341805152028776e-38
1.083271 -0.862311 -0.062774 2.341805152028776e-38
1.078145 -0.868713 -0.062759 2.341805152028776e-38
1.071432 -0.873822 -0.062651 2.341805152028776e-38
1.064697 -0.878882 -0.062542 2.341805152028776e-38
1.056406 -0.882612 -0.062341 2.341805152028776e-38
1.051108 -0.888916 -0.062323 2.341805152028776e-38
1.045003 -0.894551 -0.062258 2.341805152028776e-38
1.039623 -0.900799 -0.062237 2.341805152028776e-38
1.031953 -0.905039 -0.062078 2.341805152028776e-38
1.022775 -0.907893 -0.061828 2.341805152028776e-38
1.763608 -1.663747 -0.109381 2.341805152028776e-38
1.819859 -1.737986 -0.113477 2.341805152028776e-38
1.842205 -1.781058 -0.115495 2.341805152028776e-38
1.849096 -1.809795 -0.116563 2.341805152028776e-38
1.153097 -0.803142 -0.070569 2.341805152028776e-38
1.144353 -0.806917 -0.070312 2.341805152028776e-38
1.137229 -0.811782 -0.070154 2.341805152028776e-38
1.131706 -0.817761 -0.070094 2.341805152028776e-38
1.126957 -0.824294 -0.070082 2.341805152028776e-38
1.120566 -0.829610 -0.069967 2.341805152028776e-38
1.110899 -0.832557 -0.069656 2.341805152028776e-38
1.103620 -0.837236 -0.069494 2.341805152028776e-38
1.104245 -0.847940 -0.069830 2.341805152028776e-38
1.102417 -0.856842 -0.070014 2.341805152028776e-38
1.092673 -0.859576 -0.069695 2.341805152028776e-38
1.083661 -0.862918 -0.069430 2.341805152028776e-38
1.078531 -0.869323 -0.069414 2.341805152028776e-38
1.072589 -0.875066 -0.069345 2.341805152028776e-38
1.065847 -0.880133 -0.069224 2.341805152028776e-38
1.056783 -0.883230 -0.068951 2.341805152028776e-38
1.049952 -0.888252 -0.068831 2.341805152028776e-38
1.044610 -0.894530 -0.068810 2.341805152028776e-38
1.039985 -0.901430 -0.068836 2.341805152028776e-38
1.033814 -0.906990 -0.068761 2.341805152028776e-38
1.026119 -0.911181 -0.068584 2.341805152028776e-38
1.791238 -1.690424 -0.122834 2.341805152028776e-38
1.833570 -1.751731 -0.126414 2.341805152028776e-38
1.850792 -1.790026 -0.128295 2.341805152028776e-38
1.854766 -1.816020 -0.129276 2.341805152028776e-38
1.154310 -0.804276 -0.077399 2.341805152028776e-38
1.146375 -0.808637 -0.077173 2.341805152028776e-38
1.139242 -0.813513 -0.076999 2.341805152028776e-38
1.133708 -0.819504 -0.076933 2.341805152028776e-38
1.128144 -0.825459 -0.076865 2.341805152028776e-38
1.122547 -0.831379 -0.076794 2.341805152028776e-38
1.112868 -0.834343 -0.076454 2.341805152028776e-38
1.112738 -0.844465 -0.076770 2.341805152028776e-38
1.110152 -0.852790 -0.076918 2.341805152028776e-38
1.101200 -0.856211 -0.076626 2.341805152028776e-38
1.093815 -0.860792 -0.076441 2.341805152028776e-38
1.087135 -0.866012 -0.076315 2.341805152028776e-38
1.081987 -0.872438 -0.076297 2.341805152028776e-38
1.073706 -0.876308 -0.076057 2.341805152028776e-38
1.065417 -0.880110 -0.075815 2.341805152028776e-38
1.058654 -0.885126 -0.075680 2.341805152028776e-38
1.052569 -0.890811 -0.075604 2.341805152028776e-38
1.047211 -0.897105 -0.075580 2.341805152028776e-38
1.041816 -0.903367 -0.075554 2.341805152028776e-38
1.034132 -0.907620 -0.075362 2.341805152028776e-38
1.036886 -0.921098 -0.075933 2.341805152028776e-38
1.815144 -1.713666 -0.136382 2.341805152028776e-38
1.850082 -1.768229 -0.139757 2.341805152028776e-38
1.859297 -1.798987 -0.141217 2.341805152028776e-38
1.857503 -1.819444 -0.141855 2.341805152028776e-38
1.154661 -0.804841 -0.084188 2.341805152028776e-38
1.146725 -0.809204 -0.083942 2.341805152028776e-38
1.140401 -0.814663 -0.083813 2.341805152028776e-38
1.134053 -0.820076 -0.083681 2.341805152028776e-38
1.128486 -0.826033 -0.083607 2.341805152028776e-38
1.123682 -0.832557 -0.083590 2.341805152028776e-38
1.116394 -0.837325 -0.083399 2.341805152028776e-38
1.112269 -0.844450 -0.083444 2.341805152028776e-38
1.106516 -0.850339 -0.083367 2.341805152028776e-38
1.099944 -0.855578 -0.083227 2.341805152028776e-38
1.093342 -0.860776 -0.083086 2.341805152028776e-38
1.086663 -0.865994 -0.082950 2.341805152028776e-38
1.081515 -0.872417 -0.082929 2.341805152028776e-38
1.072463 -0.875653 -0.082609 2.341805152028776e-38
1.065718 -0.880721 -0.082464 2.341805152028776e-38
1.058947 -0.885745 -0.082318 2.341805152028776e-38
1.053620 -0.892078 -0.082295 2.341805152028776e-38
1.047497 -0.897729 -0.082210 2.341805152028776e-38
1.040590 -0.902684 -0.082062 2.341805152028776e-38
1.038162 -0.911541 -0.082269 2.341805152028776e-38
