VERSION .7
FIELDS x y z rgb
SIZE 4 4 4 4
TYPE F F F F
COUNT 1 1 1 1
WIDTH 842
HEIGHT 1
VIEWPOINT 0 0 0 1 0 0 0
POINTS 842
DATA ascii
1.432979 1.839445 0.870709 2.341805152028776e-38
1.445578 1.830365 0.871877 2.341805152028776e-38
1.460416 1.824162 0.874439 2.341805152028776e-38
1.476338 1.819357 0.877709 2.341805152028776e-38
1.489287 1.810812 0.879204 2.341805152028776e-38
1.497994 1.797150 0.878219 2.341805152028776e-38
1.511422 1.789182 0.880021 2.341805152028776e-38
1.519333 1.774724 0.878634 2.341805152028776e-38
1.533156 1.767389 0.880778 2.341805152028776e-38
1.617566 1.746525 0.900086 2.341805152028776e-38
1.413214 1.807733 0.844364 2.341805152028776e-38
1.432020 1.806893 0.849297 2.341805152028776e-38
1.447832 1.802302 0.852517 2.341805152028776e-38
1.452374 1.783778 0.849147 2.341805152028776e-38
0.922465 1.077949 0.502106 2.341805152028776e-38
0.915771 1.056149 0.495178 2.341805152028776e-38
0.911948 1.038031 0.489896 2.341805152028776e-38
0.912945 1.025646 0.487267 2.341805152028776e-38
0.929600 1.030794 0.492988 2.341805152028776e-38
0.961597 1.052477 0.506748 2.341805152028776e-38
0.840858 1.061313 0.469107 2.341805152028776e-38
0.878480 1.093953 0.486585 2.341805152028776e-38
0.886744 1.089504 0.487683 2.341805152028776e-38
0.885371 1.073339 0.483517 2.341805152028776e-38
0.884434 1.057971 0.479659 2.341805152028776e-38
0.883322 1.042679 0.475785 2.341805152028776e-38
0.885068 1.031077 0.473556 2.341805152028776e-38
0.885464 1.018077 0.470652 2.341805152028776e-38
0.888852 1.008664 0.469378 2.341805152028776e-38
0.893414 1.000663 0.468749 2.341805152028776e-38
0.904877 1.000351 0.471737 2.341805152028776e-38
0.933543 1.018760 0.483654 2.341805152028776e-38
0.836222 1.052121 0.458448 2.341805152028776e-38
0.848366 1.053126 0.461781 2.341805152028776e-38
0.856370 1.048889 0.462843 2.341805152028776e-38
0.861341 1.040950 0.462275 2.341805152028776e-38
0.864422 1.030823 0.460721 2.341805152028776e-38
0.867363 1.020737 0.459166 2.341805152028776e-38
0.872038 1.012830 0.458578 2.341805152028776e-38
0.876026 1.004198 0.457651 2.341805152028776e-38
0.881820 0.997688 0.457685 2.341805152028776e-38
0.887567 0.991150 0.457707 2.341805152028776e-38
0.898341 0.990193 0.460324 2.341805152028776e-38
0.922515 1.003805 0.469794 2.341805152028776e-38
0.832081 1.043652 0.448214 2.341805152028776e-38
0.841210 1.041009 0.449900 2.341805152028776e-38
0.848540 1.036094 0.450619 2.341805152028776e-38
0.854632 1.029674 0.450688 2.341805152028776e-38
0.858841 1.021052 0.449788 2.341805152028776e-38
0.864755 1.014633 0.449853 2.341805152028776e-38
0.870623 1.008185 0.449906 2.341805152028776e-38
0.878316 1.003846 0.450908 2.341805152028776e-38
0.883477 0.996619 0.450616 2.341805152028776e-38
0.888583 0.989371 0.450312 2.341805152028776e-38
0.898053 0.987040 0.452256 2.341805152028776e-38
0.919697 0.997882 0.460302 2.341805152028776e-38
0.833186 1.041839 0.440904 2.341805152028776e-38
0.839921 1.036247 0.441304 2.341805152028776e-38
0.846017 1.029882 0.441378 2.341805152028776e-38
0.852674 1.024215 0.441754 2.341805152028776e-38
0.857420 1.016360 0.441185 2.341805152028776e-38
0.863302 1.009957 0.441243 2.341805152028776e-38
0.870381 1.004960 0.441921 2.341805152028776e-38
0.876806 0.999204 0.442271 2.341805152028776e-38
0.881933 0.991994 0.441977 2.341805152028776e-38
0.887001 0.984766 0.441672 2.341805152028776e-38
0.897703 0.983875 0.444224 2.341805152028776e-38
0.918089 0.993338 0.451517 2.341805152028776e-38
0.834833 1.040757 0.433921 2.341805152028776e-38
0.840961 1.034423 0.434001 2.341805152028776e-38
0.847043 1.028058 0.434069 2.341805152028776e-38
0.854907 1.023851 0.435055 2.341805152028776e-38
0.858387 1.014557 0.433878 2.341805152028776e-38
0.864873 1.008877 0.434241 2.341805152028776e-38
0.870077 1.001724 0.433971 2.341805152028776e-38
0.876482 0.995977 0.434311 2.341805152028776e-38
0.881584 0.988774 0.434016 2.341805152028776e-38
0.887234 0.982284 0.434032 2.341805152028776e-38
0.897935 0.981399 0.436542 2.341805152028776e-38
0.917056 0.989479 0.443100 2.341805152028776e-38
0.835834 1.038922 0.426642 2.341805152028776e-38
0.843754 1.034802 0.427631 2.341805152028776e-38
0.850442 1.029159 0.427999 2.341805152028776e-38
0.855234 1.021305 0.427447 2.341805152028776e-38
0.859300 1.012744 0.426590 2.341805152028776e-38
0.865155 1.006342 0.426637 2.341805152028776e-38
0.872214 1.001347 0.427285 2.341805152028776e-38
0.878616 0.995592 0.427615 2.341805152028776e-38
0.883078 0.987673 0.427014 2.341805152028776e-38
0.888050 0.980496 0.426727 2.341805152028776e-38
0.896823 0.977510 0.428274 2.341805152028776e-38
0.915311 0.984912 0.434422 2.341805152028776e-38
0.840376 1.041529 0.421183 2.341805152028776e-38
0.848920 1.038125 0.422455 2.341805152028776e-38
0.853196 1.029517 0.421612 2.341805152028776e-38
0.857341 1.020942 0.420772 2.341805152028776e-38
0.860779 1.011645 0.419621 2.341805152028776e-38
0.867870 1.006685 0.420266 2.341805152028776e-38
0.873679 1.000242 0.420297 2.341805152028776e-38
0.880074 0.994485 0.420618 2.341805152028776e-38
0.885133 0.987290 0.420331 2.341805152028776e-38
0.890095 0.980109 0.420047 2.341805152028776e-38
0.898228 0.976416 0.421263 2.341805152028776e-38
0.915447 0.982424 0.426709 2.341805152028776e-38
0.843686 1.042643 0.415096 2.341805152028776e-38
0.849214 1.035531 0.414866 2.341805152028776e-38
0.852231 1.025468 0.413442 2.341805152028776e-38
0.855712 1.016185 0.412318 2.341805152028776e-38
0.862209 1.010537 0.412663 2.341805152028776e-38
0.868671 1.004851 0.412997 2.341805152028776e-38
0.874466 0.998409 0.413023 2.341805152028776e-38
0.880215 0.991939 0.413037 2.341805152028776e-38
0.885864 0.985481 0.413056 2.341805152028776e-38
0.891453 0.979007 0.413069 2.341805152028776e-38
0.899585 0.975312 0.414263 2.341805152028776e-38
0.914223 0.978531 0.418429 2.341805152028776e-38
0.842739 1.038549 0.406955 2.341805152028776e-38
0.848237 1.031449 0.406723 2.341805152028776e-38
0.853024 1.023621 0.406199 2.341805152028776e-38
0.858952 1.017262 0.406255 2.341805152028776e-38
0.865457 1.011599 0.406591 2.341805152028776e-38
0.870672 1.004453 0.406332 2.341805152028776e-38
0.876463 0.998004 0.406353 2.341805152028776e-38
0.882193 0.991536 0.406367 2.341805152028776e-38
0.887183 0.984372 0.406094 2.341805152028776e-38
0.894052 0.979307 0.406689 2.341805152028776e-38
0.901543 0.974900 0.407567 2.341805152028776e-38
0.915549 0.977417 0.411371 2.341805152028776e-38
0.843542 1.036671 0.399720 2.341805152028776e-38
0.848414 1.028833 0.399200 2.341805152028776e-38
0.854380 1.022500 0.399262 2.341805152028776e-38
0.861537 1.017599 0.399887 2.341805152028776e-38
0.866172 1.009745 0.399352 2.341805152028776e-38
0.871372 1.002599 0.399093 2.341805152028776e-38
0.877149 0.996151 0.399109 2.341805152028776e-38
0.883476 0.990421 0.399416 2.341805152028776e-38
0.889097 0.983965 0.399431 2.341805152028776e-38
0.895319 0.978187 0.399724 2.341805152028776e-38
0.902806 0.973778 0.400584 2.341805152028776e-38
0.914861 0.974201 0.403457 2.341805152028776e-38
0.843079 1.033296 0.391940 2.341805152028776e-38
0.850343 1.028443 0.392560 2.341805152028776e-38
0.856919 1.022839 0.392900 2.341805152028776e-38
0.862839 1.016465 0.392947 2.341805152028776e-38
0.866836 1.007880 0.392133 2.341805152028776e-38
0.873910 1.002905 0.392723 2.341805152028776e-38
0.879687 0.996446 0.392736 2.341805152028776e-38
0.886628 0.991441 0.393326 2.341805152028776e-38
0.890966 0.983548 0.392770 2.341805152028776e-38
0.896537 0.977058 0.392771 2.341805152028776e-38
0.904020 0.972647 0.393613 2.341805152028776e-38
0.913456 0.970277 0.395298 2.341805152028776e-38
0.843774 1.031397 0.384753 2.341805152028776e-38
0.851614 1.027304 0.385644 2.341805152028776e-38
0.856947 1.020227 0.385419 2.341805152028776e-38
0.863470 1.014590 0.385739 2.341805152028776e-38
0.869330 1.008188 0.385770 2.341805152028776e-38
0.875144 1.001755 0.385789 2.341805152028776e-38
0.882158 0.996753 0.386364 2.341805152028776e-38
0.888461 0.991023 0.386661 2.341805152028776e-38
0.892791 0.983123 0.386111 2.341805152028776e-38
0.897707 0.975919 0.385829 2.341805152028776e-38
0.903878 0.970101 0.386094 2.341805152028776e-38
0.914623 0.969137 0.388307 2.341805152028776e-38
0.843798 1.028750 0.377316 2.341805152028776e-38
0.851606 1.024676 0.378193 2.341805152028776e-38
0.857539 1.018340 0.378241 2.341805152028776e-38
0.864674 1.013437 0.378825 2.341805152028776e-38
0.869896 1.006304 0.378578 2.341805152028776e-38
0.877597 1.002044 0.379415 2.341805152028776e-38
0.883949 0.996333 0.379710 2.341805152028776e-38
0.890250 0.990596 0.379999 2.341805152028776e-38
0.894572 0.982690 0.379454 2.341805152028776e-38
0.900786 0.976893 0.379722 2.341805152028776e-38
0.906307 0.970357 0.379705 2.341805152028776e-38
0.916378 0.968707 0.381612 2.341805152028776e-38
0.844362 1.026849 0.370181 2.341805152028776e-38
0.852161 1.022778 0.371039 2.341805152028776e-38
0.858080 1.016444 0.371083 2.341805152028776e-38
0.865831 1.012275 0.371922 2.341805152028776e-38
0.871042 1.005139 0.371675 2.341805152028776e-38
0.878093 1.000162 0.372228 2.341805152028776e-38
0.884417 0.994464 0.372519 2.341805152028776e-38
0.891995 0.990161 0.373339 2.341805152028776e-38
0.896309 0.982248 0.372800 2.341805152028776e-38
0.901867 0.975738 0.372790 2.341805152028776e-38
0.908036 0.969903 0.373040 2.341805152028776e-38
0.916101 0.966173 0.374108 2.341805152028776e-38
0.849169 1.030149 0.364912 2.341805152028776e-38
0.856375 1.025312 0.365490 2.341805152028776e-38
0.861062 1.017483 0.365002 2.341805152028776e-38
0.866940 1.011103 0.365031 2.341805152028776e-38
0.873404 1.005421 0.365314 2.341805152028776e-38
0.879796 0.999730 0.365597 2.341805152028776e-38
0.886760 0.994746 0.366144 2.341805152028776e-38
0.893696 0.989717 0.366682 2.341805152028776e-38
0.898003 0.981798 0.366149 2.341805152028776e-38
0.903555 0.975281 0.366135 2.341805152028776e-38
0.908390 0.968045 0.365850 2.341805152028776e-38
0.917100 0.965028 0.367166 2.341805152028776e-38
0.852719 1.031953 0.359081 2.341805152028776e-38
0.859318 1.026358 0.359387 2.341805152028776e-38
0.863382 1.017777 0.358645 2.341805152028776e-38
0.869260 1.011387 0.358671 2.341805152028776e-38
0.875092 1.004967 0.358686 2.341805152028776e-38
0.881456 0.999289 0.358968 2.341805152028776e-38
0.887132 0.992860 0.358982 2.341805152028776e-38
0.893410 0.987118 0.359246 2.341805152028776e-38
0.898347 0.979916 0.358979 2.341805152028776e-38
0.905200 0.974817 0.359484 2.341805152028776e-38
0.911326 0.969002 0.359730 2.341805152028776e-38
0.918717 0.964573 0.360497 2.341805152028776e-38
0.854384 1.031515 0.352461 2.341805152028776e-38
0.862223 1.027395 0.353268 2.341805152028776e-38
0.865034 1.017327 0.352027 2.341805152028776e-38
0.870908 1.010931 0.352049 2.341805152028776e-38
0.877355 1.005246 0.352321 2.341805152028776e-38
0.883072 0.998840 0.352342 2.341805152028776e-38
0.888098 0.991685 0.352097 2.341805152028776e-38
0.895019 0.986657 0.352609 2.341805152028776e-38
0.900604 0.980161 0.352599 2.341805152028776e-38
0.906801 0.974345 0.352836 2.341805152028776e-38
0.913562 0.969248 0.353338 2.341805152028776e-38
0.920958 0.964810 0.354089 2.341805152028776e-38
0.854150 1.028834 0.345095 2.341805152028776e-38
0.860105 1.022498 0.345133 2.341805152028776e-38
0.864759 1.014657 0.344661 2.341805152028776e-38
0.871247 1.009000 0.344930 2.341805152028776e-38
0.878294 1.004066 0.345450 2.341805152028776e-38
0.884002 0.997658 0.345467 2.341805152028776e-38
0.890311 0.991942 0.345726 2.341805152028776e-38
0.895932 0.985473 0.345723 2.341805152028776e-38
0.901508 0.978975 0.345711 2.341805152028776e-38
0.908339 0.973881 0.346197 2.341805152028776e-38
0.914429 0.968079 0.346436 2.341805152028776e-38
0.919814 0.961543 0.346414 2.341805152028776e-38
0.961513 0.992512 0.359996 2.341805152028776e-38
0.852621 1.024652 0.337268 2.341805152028776e-38
0.860423 1.020554 0.338039 2.341805152028776e-38
0.866949 1.014927 0.338309 2.341805152028776e-38
0.872804 1.008527 0.338324 2.341805152028776e-38
0.879187 1.002877 0.338592 2.341805152028776e-38
0.886173 0.997918 0.339098 2.341805152028776e-38
0.891187 0.990751 0.338856 2.341805152028776e-38
0.897452 0.984996 0.339097 2.341805152028776e-38
0.903023 0.978493 0.339082 2.341805152028776e-38
0.909167 0.972706 0.339316 2.341805152028776e-38
0.914583 0.966199 0.339301 2.341805152028776e-38
0.921296 0.961065 0.339770 2.341805152028776e-38
0.959700 0.988561 0.351861 2.341805152028776e-38
0.854142 1.024187 0.330694 2.341805152028776e-38
0.861317 1.019343 0.331206 2.341805152028776e-38
0.866573 1.012239 0.330986 2.341805152028776e-38
0.874298 1.008060 0.331726 2.341805152028776e-38
0.881955 1.003867 0.332470 2.341805152028776e-38
0.887658 0.997445 0.332482 2.341805152028776e-38
0.891367 0.988831 0.331758 2.341805152028776e-38
0.897620 0.983079 0.331991 2.341805152028776e-38
0.902518 0.975867 0.331730 2.341805152028776e-38
0.908622 0.970106 0.331963 2.341805152028776e-38
0.914689 0.964311 0.332188 2.341805152028776e-38
0.920719 0.958481 0.332403 2.341805152028776e-38
0.957151 0.983906 0.343533 2.341805152028776e-38
0.857488 1.025951 0.324831 2.341805152028776e-38
0.864048 1.020348 0.325095 2.341805152028776e-38
0.869940 1.013968 0.325113 2.341805152028776e-38
0.877019 1.009056 0.325606 2.341805152028776e-38
0.882759 1.002662 0.325623 2.341805152028776e-38
0.888453 0.996239 0.325631 2.341805152028776e-38
0.894102 0.989786 0.325630 2.341805152028776e-38
0.900361 0.984021 0.325856 2.341805152028776e-38
0.905901 0.977525 0.325842 2.341805152028776e-38
0.912014 0.971748 0.326068 2.341805152028776e-38
0.917421 0.965232 0.326048 2.341805152028776e-38
0.923457 0.959388 0.326256 2.341805152028776e-38
0.954540 0.979242 0.335266 2.341805152028776e-38
0.861425 1.028453 0.319175 2.341805152028776e-38
0.864854 1.019120 0.318274 2.341805152028776e-38
0.869467 1.011264 0.317826 2.341805152028776e-38
0.877148 1.007110 0.318543 2.341805152028776e-38
0.882873 1.000720 0.318557 2.341805152028776e-38
0.888554 0.994300 0.318562 2.341805152028776e-38
0.894189 0.987850 0.318558 2.341805152028776e-38
0.900435 0.982089 0.318776 2.341805152028776e-38
0.905277 0.974902 0.318532 2.341805152028776e-38
0.913373 0.971258 0.319450 2.341805152028776e-38
0.918105 0.964033 0.319195 2.341805152028776e-38
0.924808 0.958888 0.319629 2.341805152028776e-38
0.952545 0.975265 0.327292 2.341805152028776e-38
0.861572 1.026473 0.312125 2.341805152028776e-38
0.866243 1.018626 0.311693 2.341805152028776e-38
0.872106 1.012252 0.311709 2.341805152028776e-38
0.879788 1.008091 0.312412 2.341805152028776e-38
0.884228 1.000228 0.311968 2.341805152028776e-38
0.890554 0.994529 0.312198 2.341805152028776e-38
0.895535 0.987349 0.311964 2.341805152028776e-38
0.901778 0.981582 0.312175 2.341805152028776e-38
0.907918 0.975835 0.312396 2.341805152028776e-38
0.914689 0.970762 0.312837 2.341805152028776e-38
0.920087 0.964235 0.312812 2.341805152028776e-38
0.926793 0.959082 0.313236 2.341805152028776e-38
0.950493 0.971279 0.319370 2.341805152028776e-38
0.862298 1.025231 0.305320 2.341805152028776e-38
0.868221 1.018867 0.305339 2.341805152028776e-38
0.874062 1.012500 0.305357 2.341805152028776e-38
0.879824 1.006130 0.305375 2.341805152028776e-38
0.885540 0.999730 0.305384 2.341805152028776e-38
0.891212 0.993300 0.305383 2.341805152028776e-38
0.897493 0.987562 0.305597 2.341805152028776e-38
0.902398 0.980368 0.305361 2.341805152028776e-38
0.907864 0.973909 0.305351 2.341805152028776e-38
0.915293 0.969549 0.306004 2.341805152028776e-38
0.921355 0.963727 0.306201 2.341805152028776e-38
0.926704 0.957169 0.306165 2.341805152028776e-38
0.947696 0.966592 0.311275 2.341805152028776e-38
0.865493 1.026966 0.299398 2.341805152028776e-38
0.871426 1.020584 0.299414 2.341805152028776e-38
0.876617 1.013479 0.299218 2.341805152028776e-38
0.883027 1.007830 0.299451 2.341805152028776e-38
0.887457 0.999953 0.299021 2.341805152028776e-38
0.893780 0.994240 0.299237 2.341805152028776e-38
0.898754 0.987046 0.299008 2.341805152028776e-38
0.905616 0.982018 0.299435 2.341805152028776e-38
0.910425 0.974829 0.299205 2.341805152028776e-38
0.917192 0.969747 0.299623 2.341805152028776e-38
0.923256 0.963916 0.299813 2.341805152028776e-38
0.929283 0.958050 0.299995 2.341805152028776e-38
0.946872 0.964002 0.303906 2.341805152028776e-38
0.866762 1.026455 0.292813 2.341805152028776e-38
0.872683 1.020074 0.292829 2.341805152028776e-38
0.877215 1.012237 0.292424 2.341805152028776e-38
0.883617 1.006588 0.292650 2.341805152028776e-38
0.888684 0.999440 0.292441 2.341805152028776e-38
0.894350 0.992997 0.292436 2.341805152028776e-38
0.900630 0.987246 0.292636 2.341805152028776e-38
0.906148 0.980792 0.292630 2.341805152028776e-38
0.911615 0.974315 0.292616 2.341805152028776e-38
0.918379 0.969230 0.293023 2.341805152028776e-38
0.924440 0.963395 0.293207 2.341805152028776e-38
0.929784 0.956823 0.293168 2.341805152028776e-38
0.945997 0.961404 0.296569 2.341805152028776e-38
0.982271 0.985905 0.306203 2.341805152028776e-38
0.866092 1.023696 0.285608 2.341805152028776e-38
0.871337 1.016597 0.285417 2.341805152028776e-38
0.876485 1.009510 0.285227 2.341805152028776e-38
0.883515 1.004603 0.285654 2.341805152028776e-38
0.888567 0.997459 0.285447 2.341805152028776e-38
0.896185 0.993198 0.286067 2.341805152028776e-38
0.903112 0.988171 0.286473 2.341805152028776e-38
0.909956 0.983146 0.286885 2.341805152028776e-38
0.914767 0.975936 0.286661 2.341805152028776e-38
0.920870 0.970124 0.286847 2.341805152028776e-38
0.926259 0.963571 0.286816 2.341805152028776e-38
0.932966 0.958393 0.287195 2.341805152028776e-38
0.945757 0.959495 0.289475 2.341805152028776e-38
0.973790 0.975702 0.296374 2.341805152028776e-38
0.867903 1.023916 0.279250 2.341805152028776e-38
0.872490 1.016082 0.278862 2.341805152028776e-38
0.879558 1.011206 0.279285 2.341805152028776e-38
0.887248 1.007018 0.279906 2.341805152028776e-38
0.893616 1.001314 0.280110 2.341805152028776e-38
0.897979 0.993393 0.279693 2.341805152028776e-38
0.903567 0.986931 0.279684 2.341805152028776e-38
0.910405 0.981906 0.280085 2.341805152028776e-38
0.915205 0.974696 0.279863 2.341805152028776e-38
0.920626 0.968175 0.279838 2.341805152028776e-38
0.926680 0.962332 0.280010 2.341805152028776e-38
0.932680 0.956470 0.280178 2.341805152028776e-38
0.944095 0.956187 0.281994 2.341805152028776e-38
0.966613 0.966875 0.287092 2.341805152028776e-38
0.872211 1.027118 0.273683 2.341805152028776e-38
0.876155 1.018531 0.273108 2.341805152028776e-38
0.884528 1.015113 0.273919 2.341805152028776e-38
0.892893 1.011631 0.274724 2.341805152028776e-38
0.894719 1.000780 0.273525 2.341805152028776e-38
0.900390 0.994308 0.273515 2.341805152028776e-38
0.907288 0.989294 0.273909 2.341805152028776e-38
0.912141 0.982095 0.273699 2.341805152028776e-38
0.917612 0.975590 0.273680 2.341805152028776e-38
0.923037 0.969058 0.273654 2.341805152028776e-38
0.927736 0.961792 0.273419 2.341805152028776e-38
0.935082 0.957344 0.273987 2.341805152028776e-38
0.945135 0.955658 0.275359 2.341805152028776e-38
0.962828 0.961499 0.278933 2.341805152028776e-38
0.873295 1.026589 0.267106 2.341805152028776e-38
0.878507 1.019488 0.266932 2.341805152028776e-38
0.884310 1.013103 0.266945 2.341805152028776e-38
0.890067 1.006687 0.266949 2.341805152028776e-38
0.895779 1.000240 0.266945 2.341805152028776e-38
0.902103 0.994492 0.267129 2.341805152028776e-38
0.907659 0.988040 0.267125 2.341805152028776e-38
0.913838 0.982278 0.267308 2.341805152028776e-38
0.918636 0.975051 0.267093 2.341805152028776e-38
0.922702 0.967096 0.266674 2.341805152028776e-38
0.928750 0.961245 0.266834 2.341805152028776e-38
0.936076 0.956812 0.267392 2.341805152028776e-38
0.944752 0.953729 0.268337 2.341805152028776e-38
0.958982 0.956115 0.270845 2.341805152028776e-38
0.874969 1.026805 0.260725 2.341805152028776e-38
0.880822 1.020439 0.260743 2.341805152028776e-38
0.885337 1.012564 0.260373 2.341805152028776e-38
0.891089 1.006144 0.260376 2.341805152028776e-38
0.896796 0.999694 0.260370 2.341805152028776e-38
0.903758 0.994684 0.260742 2.341805152028776e-38
0.909979 0.988947 0.260927 2.341805152028776e-38
0.915495 0.982455 0.260914 2.341805152028776e-38
0.920291 0.975220 0.260702 2.341805152028776e-38
0.925033 0.967966 0.260483 2.341805152028776e-38
0.931078 0.962111 0.260639 2.341805152028776e-38
0.937027 0.956273 0.260802 2.341805152028776e-38
0.945014 0.952491 0.261531 2.341805152028776e-38
0.957164 0.952802 0.263403 2.341805152028776e-38
0.874688 1.024771 0.253783 2.341805152028776e-38
0.881169 1.019153 0.253985 2.341805152028776e-38
0.885673 1.011278 0.253622 2.341805152028776e-38
0.892068 1.005594 0.253808 2.341805152028776e-38
0.897771 0.999141 0.253801 2.341805152028776e-38
0.905374 0.994869 0.254352 2.341805152028776e-38
0.911596 0.989125 0.254531 2.341805152028776e-38
0.915770 0.981189 0.254144 2.341805152028776e-38
0.920556 0.973955 0.253936 2.341805152028776e-38
0.925967 0.967412 0.253905 2.341805152028776e-38
0.931307 0.960864 0.253874 2.341805152028776e-38
0.937937 0.955728 0.254217 2.341805152028776e-38
0.944539 0.950550 0.254554 2.341805152028776e-38
0.953900 0.948097 0.255630 2.341805152028776e-38
0.874360 1.022730 0.246866 2.341805152028776e-38
0.881472 1.017860 0.247241 2.341805152028776e-38
0.887261 1.011465 0.247247 2.341805152028776e-38
0.893658 1.005773 0.247427 2.341805152028776e-38
0.900018 1.000043 0.247599 2.341805152028776e-38
0.906286 0.994322 0.247776 2.341805152028776e-38
0.913172 0.989297 0.248130 2.341805152028776e-38
0.918016 0.982072 0.247933 2.341805152028776e-38
0.922805 0.974826 0.247728 2.341805152028776e-38
0.928220 0.968271 0.247697 2.341805152028776e-38
0.933547 0.961727 0.247669 2.341805152028776e-38
0.940183 0.956581 0.248002 2.341805152028776e-38
0.946098 0.950693 0.248147 2.341805152028776e-38
0.953372 0.946156 0.248649 2.341805152028776e-38
0.875905 1.022924 0.240499 2.341805152028776e-38
0.881730 1.016561 0.240511 2.341805152028776e-38
0.886210 1.008687 0.240164 2.341805152028776e-38
0.893898 1.004476 0.240689 2.341805152028776e-38
0.900247 0.998749 0.240856 2.341805152028776e-38
0.907157 0.993768 0.241206 2.341805152028776e-38
0.912704 0.987296 0.241196 2.341805152028776e-38
0.918878 0.981512 0.241356 2.341805152028776e-38
0.923662 0.974264 0.241154 2.341805152028776e-38
0.929072 0.967705 0.241123 2.341805152028776e-38
0.935749 0.962585 0.241451 2.341805152028776e-38
0.941701 0.956726 0.241598 2.341805152028776e-38
0.946922 0.950135 0.241560 2.341805152028776e-38
0.954195 0.945595 0.242047 2.341805152028776e-38
0.876769 1.022364 0.233958 2.341805152028776e-38
0.882589 1.015998 0.233968 2.341805152028776e-38
0.889665 1.011080 0.234314 2.341805152028776e-38
0.896059 1.005378 0.234481 2.341805152028776e-38
0.902398 0.999654 0.234646 2.341805152028776e-38
0.909314 0.994662 0.234985 2.341805152028776e-38
0.914866 0.988179 0.234974 2.341805152028776e-38
0.919698 0.980947 0.234784 2.341805152028776e-38
0.924476 0.973695 0.234587 2.341805152028776e-38
0.930555 0.967853 0.234728 2.341805152028776e-38
0.937227 0.962732 0.235048 2.341805152028776e-38
0.942489 0.956165 0.235017 2.341805152028776e-38
0.947705 0.949571 0.234978 2.341805152028776e-38
0.955676 0.945721 0.235623 2.341805152028776e-38
0.878233 1.022546 0.227589 2.341805152028776e-38
0.884700 1.016917 0.227764 2.341805152028776e-38
0.891131 1.011248 0.227932 2.341805152028776e-38
0.897526 1.005539 0.228094 2.341805152028776e-38
0.903849 0.999822 0.228255 2.341805152028776e-38
0.909437 0.993370 0.228250 2.341805152028776e-38
0.914979 0.986887 0.228238 2.341805152028776e-38
0.920476 0.980376 0.228219 2.341805152028776e-38
0.925248 0.973121 0.228025 2.341805152028776e-38
0.931307 0.967291 0.228165 2.341805152028776e-38
0.937289 0.961462 0.228307 2.341805152028776e-38
0.943926 0.956300 0.228610 2.341805152028776e-38
0.949839 0.950396 0.228739 2.341805152028776e-38
0.956417 0.945150 0.229030 2.341805152028776e-38
0.880943 1.024217 0.221539 2.341805152028776e-38
0.886772 1.017829 0.221546 2.341805152028776e-38
0.891903 1.010670 0.221385 2.341805152028776e-38
0.898952 1.005695 0.221703 2.341805152028776e-38
0.904599 0.999253 0.221699 2.341805152028776e-38
0.912182 0.994980 0.222180 2.341805152028776e-38
0.917733 0.988482 0.222167 2.341805152028776e-38
0.923239 0.981956 0.222147 2.341805152028776e-38
0.928019 0.974686 0.221958 2.341805152028776e-38
0.933387 0.968144 0.221933 2.341805152028776e-38
0.938685 0.961599 0.221907 2.341805152028776e-38
0.944631 0.955728 0.222038 2.341805152028776e-38
0.950540 0.949822 0.222162 2.341805152028776e-38
0.957817 0.945266 0.222605 2.341805152028776e-38
0.882972 1.025135 0.215310 2.341805152028776e-38
0.888157 1.017992 0.215159 2.341805152028776e-38
0.892633 1.010086 0.214844 2.341805152028776e-38
0.898362 1.003637 0.214836 2.341805152028776e-38
0.904643 0.997946 0.214992 2.341805152028776e-38
0.912220 0.993675 0.215457 2.341805152028776e-38
0.917762 0.987179 0.215443 2.341805152028776e-38
0.924612 0.982092 0.215738 2.341805152028776e-38
0.929391 0.974816 0.215553 2.341805152028776e-38
0.932687 0.966150 0.215057 2.341805152028776e-38
0.938661 0.960317 0.215188 2.341805152028776e-38
0.945294 0.955151 0.215472 2.341805152028776e-38
0.951898 0.949940 0.215749 2.341805152028776e-38
0.959881 0.946071 0.216337 2.341805152028776e-38
0.884963 1.026047 0.209069 2.341805152028776e-38
0.889501 1.018149 0.208769 2.341805152028776e-38
0.893975 1.010236 0.208461 2.341805152028776e-38
0.899693 1.003790 0.208455 2.341805152028776e-38
0.905307 0.997365 0.208452 2.341805152028776e-38
0.912882 0.993092 0.208903 2.341805152028776e-38
0.919766 0.988040 0.209194 2.341805152028776e-38
0.925945 0.982224 0.209326 2.341805152028776e-38
0.930719 0.974944 0.209146 2.341805152028776e-38
0.935374 0.967703 0.208972 2.341805152028776e-38
0.940667 0.961150 0.208946 2.341805152028776e-38
0.948001 0.956674 0.209373 2.341805152028776e-38
0.954616 0.951449 0.209641 2.341805152028776e-38
0.960499 0.945486 0.209749 2.341805152028776e-38
0.884329 1.023959 0.202224 2.341805152028776e-38
0.890154 1.017556 0.202227 2.341805152028776e-38
0.894621 1.009640 0.201928 2.341805152028776e-38
0.900981 1.003941 0.202071 2.341805152028776e-38
0.908590 0.999705 0.202513 2.341805152028776e-38
0.914842 0.993958 0.202652 2.341805152028776e-38
0.920384 0.987450 0.202636 2.341805152028776e-38
0.927238 0.982351 0.202912 2.341805152028776e-38
0.932680 0.975792 0.202888 2.341805152028776e-38
0.936651 0.967830 0.202569 2.341805152028776e-38
0.944019 0.963389 0.202988 2.341805152028776e-38
0.949976 0.957491 0.203104 2.341805152028776e-38
0.954495 0.950162 0.202916 2.341805152028776e-38
0.961065 0.944905 0.203171 2.341805152028776e-38
0.885591 1.024110 0.195833 2.341805152028776e-38
0.890764 1.016956 0.195692 2.341805152028776e-38
0.897852 1.012000 0.195975 2.341805152028776e-38
0.904874 1.007030 0.196258 2.341805152028776e-38
0.909840 0.999844 0.196111 2.341805152028776e-38
0.916093 0.994091 0.196245 2.341805152028776e-38
0.922310 0.988301 0.196372 2.341805152028776e-38
0.928490 0.982472 0.196494 2.341805152028776e-38
0.933918 0.975920 0.196472 2.341805152028776e-38
0.939953 0.970084 0.196595 2.341805152028776e-38
0.945951 0.964212 0.196712 2.341805152028776e-38
0.950519 0.956900 0.196535 2.341805152028776e-38
0.955734 0.950267 0.196496 2.341805152028776e-38
0.961585 0.944324 0.196600 2.341805152028776e-38
0.885516 1.022758 0.189162 2.341805152028776e-38
0.891332 1.016351 0.189163 2.341805152028776e-38
0.896444 1.009172 0.189020 2.341805152028776e-38
0.904098 1.004961 0.189434 2.341805152028776e-38
0.910383 0.999246 0.189568 2.341805152028776e-38
0.917304 0.994220 0.189835 2.341805152028776e-38
0.922845 0.987700 0.189818 2.341805152028776e-38
0.928342 0.981150 0.189796 2.341805152028776e-38
0.933747 0.974613 0.189776 2.341805152028776e-38
0.940463 0.969491 0.190033 2.341805152028776e-38
0.945764 0.962911 0.190006 2.341805152028776e-38
0.951020 0.956303 0.189973 2.341805152028776e-38
0.955527 0.948971 0.189794 2.341805152028776e-38
0.962771 0.944431 0.190176 2.341805152028776e-38
0.885398 1.021400 0.182507 2.341805152028776e-38
0.892511 1.016485 0.182775 2.341805152028776e-38
0.898281 1.010041 0.182769 2.341805152028776e-38
0.905929 1.005832 0.183171 2.341805152028776e-38
0.912220 1.000106 0.183299 2.341805152028776e-38
0.918474 0.994343 0.183422 2.341805152028776e-38
0.924016 0.987817 0.183406 2.341805152028776e-38
0.930193 0.981981 0.183518 2.341805152028776e-38
0.934904 0.974731 0.183365 2.341805152028776e-38
0.941622 0.969604 0.183613 2.341805152028776e-38
0.946228 0.962311 0.183451 2.341805152028776e-38
0.952178 0.956405 0.183552 2.341805152028776e-38
0.957388 0.949764 0.183514 2.341805152028776e-38
0.963917 0.944534 0.183749 2.341805152028776e-38
0.886535 1.021534 0.176127 2.341805152028776e-38
0.892341 1.015124 0.176126 2.341805152028776e-38
0.898093 1.008690 0.176120 2.341805152028776e-38
0.905066 1.003751 0.176378 2.341805152028776e-38
0.912681 0.999497 0.176760 2.341805152028776e-38
0.917585 0.992276 0.176619 2.341805152028776e-38
0.924468 0.987205 0.176861 2.341805152028776e-38
0.929957 0.980651 0.176839 2.341805152028776e-38
0.935334 0.974129 0.176822 2.341805152028776e-38
0.942049 0.969000 0.177060 2.341805152028776e-38
0.946650 0.961707 0.176903 2.341805152028776e-38
0.951897 0.955097 0.176870 2.341805152028776e-38
0.957802 0.949157 0.176962 2.341805152028776e-38
0.963607 0.943245 0.177060 2.341805152028776e-38
0.889584 1.023909 0.170117 2.341805152028776e-38
0.894748 1.016737 0.169991 2.341805152028776e-38
0.899837 1.009558 0.169862 2.341805152028776e-38
0.906817 1.004611 0.170110 2.341805152028776e-38
0.913100 0.998883 0.170228 2.341805152028776e-38
0.919347 0.993117 0.170340 2.341805152028776e-38
0.926236 0.988037 0.170573 2.341805152028776e-38
0.932400 0.982204 0.170678 2.341805152028776e-38
0.937099 0.974952 0.170536 2.341805152028776e-38
0.942436 0.968392 0.170514 2.341805152028776e-38
0.947727 0.961805 0.170487 2.341805152028776e-38
0.952974 0.955189 0.170455 2.341805152028776e-38
0.958870 0.949254 0.170544 2.341805152028776e-38
0.965383 0.944032 0.170764 2.341805152028776e-38
0.890642 1.024032 0.163717 2.341805152028776e-38
0.894494 1.015365 0.163355 2.341805152028776e-38
0.898900 1.007459 0.163112 2.341805152028776e-38
0.906532 1.003255 0.163470 2.341805152028776e-38
0.913477 0.998264 0.163702 2.341805152028776e-38
0.920395 0.993225 0.163930 2.341805152028776e-38
0.925927 0.986692 0.163913 2.341805152028776e-38
0.931387 0.980153 0.163895 2.341805152028776e-38
0.937448 0.974340 0.163998 2.341805152028776e-38
0.942781 0.967780 0.163976 2.341805152028776e-38
0.948068 0.961191 0.163949 2.341805152028776e-38
0.953310 0.954575 0.163917 2.341805152028776e-38
0.959897 0.949348 0.164125 2.341805152028776e-38
0.967830 0.945509 0.164577 2.341805152028776e-38
0.891008 1.023401 0.157199 2.341805152028776e-38
0.896823 1.016967 0.157197 2.341805152028776e-38
0.901888 1.009798 0.157080 2.341805152028776e-38
0.908870 1.004841 0.157307 2.341805152028776e-38
0.915155 0.999104 0.157415 2.341805152028776e-38
0.920728 0.992600 0.157403 2.341805152028776e-38
0.926935 0.986790 0.157501 2.341805152028776e-38
0.933753 0.981696 0.157715 2.341805152028776e-38
0.938446 0.974439 0.157583 2.341805152028776e-38
0.944471 0.968585 0.157677 2.341805152028776e-38
0.949763 0.961987 0.157650 2.341805152028776e-38
0.955009 0.955361 0.157619 2.341805152028776e-38
0.961590 0.950136 0.157819 2.341805152028776e-38
0.968109 0.944901 0.158021 2.341805152028776e-38
0.893291 1.025011 0.151020 2.341805152028776e-38
0.897800 1.017074 0.150797 2.341805152028776e-38
0.902191 1.009169 0.150574 2.341805152028776e-38
0.909170 1.004212 0.150792 2.341805152028776e-38
0.915450 0.998474 0.150895 2.341805152028776e-38
0.921019 0.991969 0.150882 2.341805152028776e-38
0.926541 0.985435 0.150865 2.341805152028776e-38
0.933341 0.980355 0.151071 2.341805152028776e-38
0.938713 0.973818 0.151054 2.341805152028776e-38
0.943347 0.966540 0.150922 2.341805152028776e-38
0.948625 0.959951 0.150895 2.341805152028776e-38
0.954560 0.954036 0.150975 2.341805152028776e-38
0.960416 0.948128 0.151058 2.341805152028776e-38
0.966213 0.942207 0.151139 2.341805152028776e-38
0.892267 1.022871 0.144292 2.341805152028776e-38
0.899395 1.017922 0.144500 2.341805152028776e-38
0.904441 1.010758 0.144394 2.341805152028776e-38
0.910763 1.005051 0.144496 2.341805152028776e-38
0.916377 0.998572 0.144488 2.341805152028776e-38
0.922622 0.992791 0.144581 2.341805152028776e-38
0.929512 0.987696 0.144776 2.341805152028776e-38
0.934944 0.981169 0.144763 2.341805152028776e-38
0.940321 0.974623 0.144746 2.341805152028776e-38
0.946347 0.968759 0.144831 2.341805152028776e-38
0.950939 0.961445 0.144699 2.341805152028776e-38
0.956181 0.954815 0.144669 2.341805152028776e-38
0.961323 0.948209 0.144642 2.341805152028776e-38
0.967832 0.942978 0.144826 2.341805152028776e-38
0.895125 1.025221 0.138196 2.341805152028776e-38
0.900287 1.018023 0.138091 2.341805152028776e-38
0.904663 1.010119 0.137889 2.341805152028776e-38
0.910981 1.004411 0.137986 2.341805152028776e-38
0.916590 0.997932 0.137978 2.341805152028776e-38
0.924186 0.993609 0.138269 2.341805152028776e-38
0.930400 0.987781 0.138354 2.341805152028776e-38
0.935135 0.980539 0.138240 2.341805152028776e-38
0.941199 0.974708 0.138325 2.341805152028776e-38
0.946530 0.968129 0.138304 2.341805152028776e-38
0.951817 0.961522 0.138279 2.341805152028776e-38
0.957762 0.955589 0.138351 2.341805152028776e-38
0.962899 0.948985 0.138327 2.341805152028776e-38
0.970126 0.944439 0.138604 2.341805152028776e-38
0.896636 1.026067 0.131877 2.341805152028776e-38
0.901793 1.018869 0.131778 2.341805152028776e-38
0.906837 1.011698 0.131681 2.341805152028776e-38
0.912495 1.005241 0.131677 2.341805152028776e-38
0.919456 1.000219 0.131862 2.341805152028776e-38
0.926389 0.995150 0.132043 2.341805152028776e-38
0.930555 0.987145 0.131834 2.341805152028776e-38
0.935973 0.980624 0.131822 2.341805152028776e-38
0.941345 0.974073 0.131805 2.341805152028776e-38
0.948760 0.969628 0.132076 2.341805152028776e-38
0.954056 0.963008 0.132051 2.341805152028776e-38
0.959299 0.956366 0.132024 2.341805152028776e-38
0.965855 0.951154 0.132194 2.341805152028776e-38
0.972383 0.945897 0.132361 2.341805152028776e-38
0.896796 1.025409 0.125364 2.341805152028776e-38
0.902599 1.018964 0.125362 2.341805152028776e-38
0.906978 1.011048 0.125177 2.341805152028776e-38
0.913301 1.005329 0.125265 2.341805152028776e-38
0.919589 0.999570 0.125348 2.341805152028776e-38
0.924482 0.992316 0.125244 2.341805152028776e-38
0.929303 0.985057 0.125137 2.341805152028776e-38
0.935395 0.979264 0.125217 2.341805152028776e-38
0.942835 0.974865 0.125478 2.341805152028776e-38
0.948166 0.968278 0.125458 2.341805152028776e-38
0.953452 0.961662 0.125434 2.341805152028776e-38
0.960089 0.956440 0.125593 2.341805152028776e-38
0.965936 0.950525 0.125663 2.341805152028776e-38
0.971747 0.944575 0.125728 2.341805152028776e-38
0.897571 1.025496 0.118945 2.341805152028776e-38
0.903365 1.019055 0.118943 2.341805152028776e-38
0.909074 1.012617 0.118942 2.341805152028776e-38
0.914067 1.005412 0.118851 2.341805152028776e-38
0.919680 0.998917 0.118842 2.341805152028776e-38
0.925927 0.993120 0.118917 2.341805152028776e-38
0.931427 0.986585 0.118904 2.341805152028776e-38
0.938216 0.981500 0.119067 2.341805152028776e-38
0.942900 0.974222 0.118964 2.341805152028776e-38
0.949622 0.969058 0.119120 2.341805152028776e-38
0.954912 0.962434 0.119097 2.341805152028776e-38
0.960839 0.956509 0.119161 2.341805152028776e-38
0.965977 0.949892 0.119139 2.341805152028776e-38
0.972498 0.944637 0.119289 2.341805152028776e-38
0.901588 1.029326 0.112936 2.341805152028776e-38
0.905414 1.020631 0.112688 2.341805152028776e-38
0.909800 1.012699 0.112522 2.341805152028776e-38
0.915463 1.006227 0.112517 2.341805152028776e-38
0.921081 0.999724 0.112509 2.341805152028776e-38
0.926653 0.993191 0.112497 2.341805152028776e-38
0.933513 0.988109 0.112651 2.341805152028776e-38
0.939624 0.982292 0.112722 2.341805152028776e-38
0.943618 0.974290 0.112542 2.341805152028776e-38
0.950341 0.969122 0.112689 2.341805152028776e-38
0.955631 0.962495 0.112667 2.341805152028776e-38
0.961550 0.956574 0.112728 2.341805152028776e-38
0.966688 0.949954 0.112706 2.341805152028776e-38
0.972495 0.944001 0.112765 2.341805152028776e-38
0.902284 1.029404 0.106490 2.341805152028776e-38
0.906763 1.021457 0.106335 2.341805152028776e-38
0.910485 1.012776 0.106100 2.341805152028776e-38
0.916148 1.006301 0.106096 2.341805152028776e-38
0.922442 1.000527 0.106165 2.341805152028776e-38
0.928699 0.994715 0.106232 2.341805152028776e-38
0.934877 0.988904 0.106299 2.341805152028776e-38
0.940992 0.983079 0.106366 2.341805152028776e-38
0.945684 0.975785 0.106274 2.341805152028776e-38
0.951020 0.969183 0.106256 2.341805152028776e-38
0.956310 0.962552 0.106235 2.341805152028776e-38
0.962222 0.956636 0.106293 2.341805152028776e-38
0.967359 0.950012 0.106273 2.341805152028776e-38
0.973882 0.944750 0.106405 2.341805152028776e-38
0.901624 1.027977 0.099897 2.341805152028776e-38
0.906085 1.020041 0.099752 2.341805152028776e-38
0.911131 1.012848 0.099677 2.341805152028776e-38
0.917465 1.007107 0.099745 2.341805152028776e-38
0.922411 0.999860 0.099665 2.341805152028776e-38
0.929345 0.994778 0.099800 2.341805152028776e-38
0.934831 0.988245 0.099790 2.341805152028776e-38
0.940252 0.981702 0.099780 2.341805152028776e-38
0.944240 0.973697 0.099619 2.341805152028776e-38
0.950960 0.968528 0.099749 2.341805152028776e-38
0.956949 0.962606 0.099802 2.341805152028776e-38
0.962147 0.955990 0.099783 2.341805152028776e-38
0.967991 0.950066 0.099837 2.341805152028776e-38
0.973799 0.944107 0.099888 2.341805152028776e-38
0.901579 1.027294 0.093390 2.341805152028776e-38
0.907353 1.020857 0.093391 2.341805152028776e-38
0.913070 1.014399 0.093389 2.341805152028776e-38
0.919415 1.008646 0.093453 2.341805152028776e-38
0.923016 0.999922 0.093240 2.341805152028776e-38
0.929951 0.994836 0.093366 2.341805152028776e-38
0.935430 0.988307 0.093358 2.341805152028776e-38
0.942232 0.983201 0.093485 2.341805152028776e-38
0.946922 0.975901 0.093403 2.341805152028776e-38
0.953656 0.970716 0.093524 2.341805152028776e-38
0.958251 0.963363 0.093437 2.341805152028776e-38
0.963447 0.956747 0.093420 2.341805152028776e-38
0.968584 0.950117 0.093401 2.341805152028776e-38
0.975108 0.944849 0.093517 2.341805152028776e-38
0.901492 1.026607 0.086892 2.341805152028776e-38
0.907918 1.020923 0.086956 2.341805152028776e-38
0.912968 1.013720 0.086890 2.341805152028776e-38
0.919308 1.007969 0.086949 2.341805152028776e-38
0.925612 1.002178 0.087006 2.341805152028776e-38
0.931880 0.996348 0.087060 2.341805152028776e-38
0.937361 0.989814 0.087052 2.341805152028776e-38
0.942792 0.983256 0.087042 2.341805152028776e-38
0.947482 0.975953 0.086966 2.341805152028776e-38
0.953517 0.970053 0.087015 2.341805152028776e-38
0.958107 0.962702 0.086933 2.341805152028776e-38
0.964708 0.957500 0.087045 2.341805152028776e-38
0.971274 0.952260 0.087156 2.341805152028776e-38
0.977813 0.946976 0.087264 2.341805152028776e-38
0.900704 1.025166 0.080342 2.341805152028776e-38
0.908444 1.020984 0.080519 2.341805152028776e-38
0.914161 1.014520 0.080517 2.341805152028776e-38
0.921179 1.009499 0.080631 2.341805152028776e-38
0.926815 1.002964 0.080624 2.341805152028776e-38
0.933088 0.997127 0.080674 2.341805152028776e-38
0.937881 0.989867 0.080608 2.341805152028776e-38
0.942621 0.982586 0.080540 2.341805152028776e-38
0.948001 0.976001 0.080528 2.341805152028776e-38
0.951936 0.967964 0.080396 2.341805152028776e-38
0.957217 0.961330 0.080379 2.341805152028776e-38
0.963805 0.956140 0.080483 2.341805152028776e-38
0.970363 0.950906 0.080585 2.341805152028776e-38
0.981197 0.949794 0.081040 2.341805152028776e-38
0.901847 1.025974 0.073973 2.341805152028776e-38
0.906937 1.018802 0.073919 2.341805152028776e-38
0.913977 1.013831 0.074026 2.341805152028776e-38
0.920992 1.008813 0.074130 2.341805152028776e-38
0.927301 1.003013 0.074178 2.341805152028776e-38
0.933568 0.997178 0.074224 2.341805152028776e-38
0.938361 0.989916 0.074163 2.341805152028776e-38
0.945174 0.984794 0.074263 2.341805152028776e-38
0.954048 0.981774 0.074524 2.341805152028776e-38
0.964320 0.980105 0.074892 2.341805152028776e-38
0.984471 0.988255 0.076020 2.341805152028776e-38
0.904270 1.028278 0.067692 2.341805152028776e-38
0.909373 1.021091 0.067643 2.341805152028776e-38
0.915091 1.014622 0.067641 2.341805152028776e-38
0.921436 1.008860 0.067687 2.341805152028776e-38
0.925711 1.000858 0.067582 2.341805152028776e-38
0.929912 0.992852 0.067475 2.341805152028776e-38
0.936052 0.987062 0.067519 2.341805152028776e-38
0.949766 0.989159 0.068106 2.341805152028776e-38
0.911273 1.035826 0.061695 2.341805152028776e-38
0.915093 1.027104 0.061561 2.341805152028776e-38
0.922856 1.022825 0.061694 2.341805152028776e-38
0.931949 1.019964 0.061915 2.341805152028776e-38
0.945112 1.021429 0.062402 2.341805152028776e-38
0.958999 1.023512 0.062934 2.341805152028776e-38
0.987330 1.040734 0.064410 2.341805152028776e-38
1.798330 1.738058 0.100843 2.341805152028776e-38
1.552897 1.595699 0.078995 2.341805152028776e-38
1.674290 1.699221 0.084679 2.341805152028776e-38
1.734872 1.739072 0.087244 2.341805152028776e-38
1.784561 1.767073 0.089246 2.341805152028776e-38
1.815368 1.775660 0.090288 2.341805152028776e-38
1.842753 1.780463 0.091150 2.341805152028776e-38
0.852116 1.025329 0.413387 3.5733110840282835e-43
0.866686 1.019270 0.352700 3.5733110840282835e-43
0.889324 1.007588 0.273626 3.5733110840282835e-43
0.908931 0.998845 0.195915 3.5733110840282835e-43
0.924924 0.992790 0.125304 3.5733110840282835e-43
